# .PCD v0.7 - Point Cloud Data file format
VERSION 0.7
FIELDS x y z normal_x normal_y normal_z
SIZE 4 4 4 4 4 4
TYPE F F F F F F
COUNT 1 1 1 1 1 1
WIDTH 658
HEIGHT 1
VIEWPOINT 0 0 0 1 0 0 0
POINTS 658
DATA ascii
0.076137103 0.061999999 0.0054579498 0.00097751606 0.99999899 0.00097751606
0.0602725 0.061999999 0.0121382 0.00097751606 0.99999899 0.00097751606
0.00413492 0.061999999 0.055422299 0.00097751606 0.99999899 0.00097751606
0.119123 0.061999999 0.0161933 0.00097751606 0.99999899 0.00097751606
0.0266199 0.061999999 0.036554102 0.00097751606 0.99999899 0.00097751606
0.095693201 0.061999999 0.0095287301 0.00097751606 0.99999899 0.00097751606
0.071836703 0.061999999 0.036004402 0.00097751606 0.99999899 0.00097751606
0.0140089 0.061999999 0.036247302 0.00097751606 0.99999899 0.00097751606
0.0319403 0.061999999 0.0345915 0.00097751606 0.99999899 0.00097751606
0.0250597 0.061999999 0.0622757 0.00097751606 0.99999899 0.00097751606
0.056566399 0.061999999 0.039682899 0.00097751606 0.99999899 0.00097751606
0.00130724 0.061999999 0.0079467297 0.00097751606 0.99999899 0.00097751606
0.095681898 0.061999999 0.0101135 0.00097751606 0.99999899 0.00097751606
0.030067099 0.061999999 0.0034975 0.00097751606 0.99999899 0.00097751606
0.112274 0.061999999 0.021641601 0.00097751606 0.99999899 0.00097751606
0.0210506 0.061999999 0.072589599 0.00097751606 0.99999899 0.00097751606
0.025099 0.061999999 0.058130398 0.00097751606 0.99999899 0.00097751606
0.054120101 0.061999999 0.0339913 0.00097751606 0.99999899 0.00097751606
0.119433 0.061999999 0.0058574998 0.00097751606 0.99999899 0.00097751606
0.089065596 0.061999999 0.0308252 0.00097751606 0.99999899 0.00097751606
0.109258 0.061999999 0.0103156 0.00097751606 0.99999899 0.00097751606
0.0098068202 0.061999999 0.057907101 0.00097751606 0.99999899 0.00097751606
0.115357 0.061999999 0.00107782 0.00097751606 0.99999899 0.00097751606
0.038163099 0.061999999 0.061903801 0.00097751606 0.99999899 0.00097751606
0.034429099 0.061999999 0.0162424 0.00097751606 0.99999899 0.00097751606
0.063448504 0.061999999 0.0226223 0.00097751606 0.99999899 0.00097751606
0.12832201 0.061999999 0.0110713 0.00097751606 0.99999899 0.00097751606
0.0043983199 0.061999999 0.076947801 0.00097751606 0.99999899 0.00097751606
0.043694101 0.061999999 0.052297801 0.00097751606 0.99999899 0.00097751606
0.104538 0.061999999 0.0191069 0.00097751606 0.99999899 0.00097751606
0.00166553 0.061999999 0.0144905 0.00097751606 0.99999899 0.00097751606
0.113026 0.061999999 0.0138215 0.00097751606 0.99999899 0.00097751606
0.083922498 0.061999999 0.0153352 0.00097751606 0.99999899 0.00097751606
0.091424197 0.061999999 0.020568 0.00097751606 0.99999899 0.00097751606
0.0603722 0.061999999 0.0510993 0.00097751606 0.99999899 0.00097751606
0.0718235 0.061999999 0.045708898 0.00097751606 0.99999899 0.00097751606
0.023320099 0.061999999 0.0293737 0.00097751606 0.99999899 0.00097751606
0.113932 0.061999999 0.012573 0.00097751606 0.99999899 0.00097751606
0.0023209101 0.061999999 0.084988803 0.00097751606 0.99999899 0.00097751606
0.0226612 0.061999999 0.072367102 0.00097751606 0.99999899 0.00097751606
0.0255628 0.061999999 0.0140029 0.00097751606 0.99999899 0.00097751606
0.120028 0.061999999 0.0017767299 0.00097751606 0.99999899 0.00097751606
0.00248176 0.061999999 0.019738199 0.00097751606 0.99999899 0.00097751606
0.0211438 0.061999999 0.035916299 0.00097751606 0.99999899 0.00097751606
0.0123379 0.061999999 0.0321435 0.00097751606 0.99999899 0.00097751606
0.078263797 0.061999999 0.037932798 0.00097751606 0.99999899 0.00097751606
0.014014 0.061999999 0.062922403 0.00097751606 0.99999899 0.00097751606
0.042297501 0.061999999 0.022070101 0.00097751606 0.99999899 0.00097751606
0.0184786 0.061999999 0.0618091 0.00097751606 0.99999899 0.00097751606
0.036344402 0.061999999 0.0074188001 0.00097751606 0.99999899 0.00097751606
0.0102631 0.061999999 0.05923 0.00097751606 0.99999899 0.00097751606
0.0031894201 0.061999999 0.034435499 0.00097751606 0.99999899 0.00097751606
0.117984 0.061999999 0.0148869 0.00097751606 0.99999899 0.00097751606
0.112938 0.061999999 0.0079023503 0.00097751606 0.99999899 0.00097751606
0.030862899 0.061999999 0.042055301 0.00097751606 0.99999899 0.00097751606
0.029551599 0.061999999 0.00552226 0.00097751606 0.99999899 0.00097751606
0.019452401 0.061999999 0.053199202 0.00097751606 0.99999899 0.00097751606
0.101141 0.061999999 0.00243192 0.00097751606 0.99999899 0.00097751606
0.0178893 0.061999999 0.048810299 0.00097751606 0.99999899 0.00097751606
0.00083924702 0.061999999 0.075598702 0.00097751606 0.99999899 0.00097751606
0.024065301 0.061999999 0.031731401 0.00097751606 0.99999899 0.00097751606
0.050515499 0.061999999 0.0076386398 0.00097751606 0.99999899 0.00097751606
0.0223276 0.061999999 0.0206936 0.00097751606 0.99999899 0.00097751606
0.0105595 0.061999999 0.046388399 0.00097751606 0.99999899 0.00097751606
0.0192704 0.061999999 0.022066399 0.00097751606 0.99999899 0.00097751606
0.0095049301 0.061999999 0.062970802 0.00097751606 0.99999899 0.00097751606
0.019100299 0.061999999 0.0018376301 0.00097751606 0.99999899 0.00097751606
0.053760901 0.061999999 0.0101476 0.00097751606 0.99999899 0.00097751606
0.0141129 0.061999999 0.030321499 0.00097751606 0.99999899 0.00097751606
0.0912835 0.061999999 0.016516499 0.00097751606 0.99999899 0.00097751606
0.066167302 0.061999999 0.047758799 0.00097751606 0.99999899 0.00097751606
0.0593215 0.061999999 0.0020945901 0.00097751606 0.99999899 0.00097751606
0.0919993 0.061999999 0.0207456 0.00097751606 0.99999899 0.00097751606
0.136384 0.061999999 0.00101981 0.00097751606 0.99999899 0.00097751606
0.096436903 0.061999999 0.0089167897 0.00097751606 0.99999899 0.00097751606
0.045498502 0.061999999 0.030036399 0.00097751606 0.99999899 0.00097751606
0.0102624 0.061999999 0.050698899 0.00097751606 0.99999899 0.00097751606
0.0055253399 0.061999999 0.073438197 0.00097751606 0.99999899 0.00097751606
0.0299273 0.061999999 0.000169322 0.00097751606 0.99999899 0.00097751606
0.141214 0.061999999 0.00136787 0.00097751606 0.99999899 0.00097751606
0.115656 0.061999999 0.00079187599 0.00097751606 0.99999899 0.00097751606
0.071085401 0.061999999 0.016761901 0.00097751606 0.99999899 0.00097751606
0.066008203 0.061999999 0.034887802 0.00097751606 0.99999899 0.00097751606
0.084191702 0.061999999 0.0373623 0.00097751606 0.99999899 0.00097751606
0.0095870104 0.061999999 0.036586601 0.00097751606 0.99999899 0.00097751606
0.0045944499 0.061999999 0.071863703 0.00097751606 0.99999899 0.00097751606
0.055410799 0.061999999 0.0074360901 0.00097751606 0.99999899 0.00097751606
0.0199918 0.061999999 0.071690403 0.00097751606 0.99999899 0.00097751606
0.00240072 0.061999999 0.061851501 0.00097751606 0.99999899 0.00097751606
0.020079199 0.061999999 0.0160322 0.00097751606 0.99999899 0.00097751606
0.0117577 0.061999999 0.049507901 0.00097751606 0.99999899 0.00097751606
0.051900599 0.061999999 0.0108597 0.00097751606 0.99999899 0.00097751606
0.016719799 0.061999999 0.0132097 0.00097751606 0.99999899 0.00097751606
0.038579199 0.061999999 0.033647999 0.00097751606 0.99999899 0.00097751606
0.096555799 0.061999999 0.0282997 0.00097751606 0.99999899 0.00097751606
0.073978104 0.061999999 0.037564699 0.00097751606 0.99999899 0.00097751606
0.088552304 0.061999999 0.0059365202 0.00097751606 0.99999899 0.00097751606
0.038924702 0.061999999 0.052207999 0.00097751606 0.99999899 0.00097751606
0.021611599 0.061999999 0.065214001 0.00097751606 0.99999899 0.00097751606
0.0069570402 0.061999999 0.080860503 0.00097751606 0.99999899 0.00097751606
0.0024882499 0.061999999 0.0531873 0.00097751606 0.99999899 0.00097751606
0.0476701 0.061999999 0.0574077 0.00097751606 0.99999899 0.00097751606
0.051449001 0.061999999 0.0131377 0.00097751606 0.99999899 0.00097751606
0.00199141 0.061999999 0.0111711 0.00097751606 0.99999899 0.00097751606
0.0859368 0.061999999 0.0077828602 0.00097751606 0.99999899 0.00097751606
0.024803801 0.061999999 0.037225701 0.00097751606 0.99999899 0.00097751606
0.033700299 0.061999999 0.058054999 0.00097751606 0.99999899 0.00097751606
0.060776699 0.061999999 0.043643899 0.00097751606 0.99999899 0.00097751606
0.029892201 0.061999999 0.0090135001 0.00097751606 0.99999899 0.00097751606
0.031610299 0.061999999 0.064435698 0.00097751606 0.99999899 0.00097751606
0.034783099 0.061999999 0.060221601 0.00097751606 0.99999899 0.00097751606
0.110176 0.061999999 0.0150311 0.00097751606 0.99999899 0.00097751606
0.071333997 0.061999999 0.022201801 0.00097751606 0.99999899 0.00097751606
0.031393599 0.061999999 0.0589476 0.00097751606 0.99999899 0.00097751606
0.0038377601 0.061999999 0.0176367 0.00097751606 0.99999899 0.00097751606
0.00379775 0.061999999 0.073470898 0.00097751606 0.99999899 0.00097751606
0.122532 0.061999999 0.0049495301 0.00097751606 0.99999899 0.00097751606
0.020048499 0.061999999 0.051136199 0.00097751606 0.99999899 0.00097751606
0.062483002 0.061999999 0.0066422201 0.00097751606 0.99999899 0.00097751606
0.00220852 0.061999999 0.0073388601 0.00097751606 0.99999899 0.00097751606
0.039210901 0.061999999 0.00395351 0.00097751606 0.99999899 0.00097751606
0.087136202 0.061999999 0.0028327601 0.00097751606 0.99999899 0.00097751606
0.00136554 0.061999999 0.0214945 0.00097751606 0.99999899 0.00097751606
0.0567623 0.061999999 0.00610467 0.00097751606 0.99999899 0.00097751606
0.0048604598 0.061999999 0.0679591 0.00097751606 0.99999899 0.00097751606
0.0092758499 0.061999999 0.0161856 0.00097751606 0.99999899 0.00097751606
0.051132001 0.061999999 0.0399151 0.00097751606 0.99999899 0.00097751606
0.050841901 0.061999999 0.0209429 0.00097751606 0.99999899 0.00097751606
0.0527987 0.061999999 0.00315595 0.00097751606 0.99999899 0.00097751606
0.062004 0.061999999 0.0441637 0.00097751606 0.99999899 0.00097751606
0.023245299 0.061999999 0.043457601 0.00097751606 0.99999899 0.00097751606
0.053766198 0.061999999 0.047730401 0.00097751606 0.99999899 0.00097751606
0.0038467699 0.061999999 0.062695101 0.00097751606 0.99999899 0.00097751606
0.062337998 0.061999999 0.0044382401 0.00097751606 0.99999899 0.00097751606
0.0120854 0.061999999 0.067256004 0.00097751606 0.99999899 0.00097751606
0.091682799 0.061999999 0.0225258 0.00097751606 0.99999899 0.00097751606
0.017033201 0.061999999 0.074769199 0.00097751606 0.99999899 0.00097751606
0.123552 0.061999999 0.00221906 0.00097751606 0.99999899 0.00097751606
0.0104345 0.061999999 0.064137302 0.00097751606 0.99999899 0.00097751606
0.0181768 0.061999999 0.0604995 0.00097751606 0.99999899 0.00097751606
0.0350793 0.061999999 0.057839099 0.00097751606 0.99999899 0.00097751606
0.094421402 0.061999999 0.0291075 0.00097751606 0.99999899 0.00097751606
0.108522 0.061999999 0.00859538 0.00097751606 0.99999899 0.00097751606
0.049020998 0.061999999 0.02912 0.00097751606 0.99999899 0.00097751606
0.0128687 0.061999999 0.051667102 0.00097751606 0.99999899 0.00097751606
0.000462486 0.061999999 0.022853 0.00097751606 0.99999899 0.00097751606
0.091847703 0.061999999 0.0176853 0.00097751606 0.99999899 0.00097751606
0.076531298 0.061999999 0.0187179 0.00097751606 0.99999899 0.00097751606
0.067444697 0.061999999 0.0076509402 0.00097751606 0.99999899 0.00097751606
0.026908301 0.061999999 0.047906 0.00097751606 0.99999899 0.00097751606
0.085543104 0.061999999 0.037845001 0.00097751606 0.99999899 0.00097751606
0.0141022 0.061999999 0.072666101 0.00097751606 0.99999899 0.00097751606
0.0506276 0.061999999 0.017097799 0.00097751606 0.99999899 0.00097751606
0.027956299 0.061999999 0.073536202 0.00097751606 0.99999899 0.00097751606
0.110304 0.061999999 0.0090920003 0.00097751606 0.99999899 0.00097751606
0.11611 0.061999999 0.019147901 0.00097751606 0.99999899 0.00097751606
0.0102193 0.061999999 0.0197224 0.00097751606 0.99999899 0.00097751606
0.052262802 0.061999999 0.0090099201 0.00097751606 0.99999899 0.00097751606
0.0530998 0.061999999 0.0151473 0.00097751606 0.99999899 0.00097751606
0.0082320804 0.061999999 0.00098810298 0.00097751606 0.99999899 0.00097751606
0.000147062 0.061999999 0.079454698 0.00097751606 0.99999899 0.00097751606
0.0220489 0.061999999 0.067482598 0.00097751606 0.99999899 0.00097751606
0.057544801 0.061999999 0.047236599 0.00097751606 0.99999899 0.00097751606
0.0105795 0.061999999 0.0105921 0.00097751606 0.99999899 0.00097751606
0.0320049 0.061999999 0.039186001 0.00097751606 0.99999899 0.00097751606
0.066333197 0.061999999 0.029936999 0.00097751606 0.99999899 0.00097751606
0.0477998 0.061999999 0.056094799 0.00097751606 0.99999899 0.00097751606
0.066221699 0.061999999 0.033446498 0.00097751606 0.99999899 0.00097751606
0.0175329 0.061999999 0.079349302 0.00097751606 0.99999899 0.00097751606
0.0677303 0.061999999 0.016746201 0.00097751606 0.99999899 0.00097751606
0.042059701 0.061999999 0.053725101 0.00097751606 0.99999899 0.00097751606
0.100274 0.061999999 0.0077783298 0.00097751606 0.99999899 0.00097751606
0.00116457 0.061999999 0.02953 0.00097751606 0.99999899 0.00097751606
0.110804 0.061999999 0.0087339403 0.00097751606 0.99999899 0.00097751606
0.040596299 0.061999999 0.027783301 0.00097751606 0.99999899 0.00097751606
0.032540798 0.061999999 0.0058978498 0.00097751606 0.99999899 0.00097751606
0.035746802 0.061999999 0.0391162 0.00097751606 0.99999899 0.00097751606
0.0032372 0.061999999 0.0132046 0.00097751606 0.99999899 0.00097751606
0.025257001 0.061999999 0.055717301 0.00097751606 0.99999899 0.00097751606
0.125218 0.061999999 0.0094652101 0.00097751606 0.99999899 0.00097751606
0.0104464 0.061999999 0.0516637 0.00097751606 0.99999899 0.00097751606
0.0143751 0.061999999 0.049675301 0.00097751606 0.99999899 0.00097751606
0.0445011 0.061999999 0.0464634 0.00097751606 0.99999899 0.00097751606
0.052567199 0.061999999 0.030840799 0.00097751606 0.99999899 0.00097751606
0.050200202 0.061999999 0.051762499 0.00097751606 0.99999899 0.00097751606
0.0428974 0.061999999 0.037448 0.00097751606 0.99999899 0.00097751606
0.034984902 0.061999999 0.051012401 0.00097751606 0.99999899 0.00097751606
0.0039208499 0.061999999 0.030448901 0.00097751606 0.99999899 0.00097751606
0.093722001 0.061999999 0.0069583398 0.00097751606 0.99999899 0.00097751606
0.0416734 0.061999999 0.0114807 0.00097751606 0.99999899 0.00097751606
0.036830898 0.061999999 0.0310688 0.00097751606 0.99999899 0.00097751606
0.0124839 0.061999999 0.040304899 0.00097751606 0.99999899 0.00097751606
0.054450199 0.061999999 0.00160301 0.00097751606 0.99999899 0.00097751606
0.085781403 0.061999999 0.028522899 0.00097751606 0.99999899 0.00097751606
0.131917 0.061999999 0.0082392804 0.00097751606 0.99999899 0.00097751606
0.00307386 0.061999999 0.0786229 0.00097751606 0.99999899 0.00097751606
0.073446304 0.061999999 0.0044143102 0.00097751606 0.99999899 0.00097751606
0.017042501 0.061999999 0.079221398 0.00097751606 0.99999899 0.00097751606
0.0504396 0.061999999 0.028792299 0.00097751606 0.99999899 0.00097751606
0.09375 0.061999999 0.0113333 0.00097751606 0.99999899 0.00097751606
0.0997677 0.061999999 0.0085498597 0.00097751606 0.99999899 0.00097751606
0.080062203 0.061999999 0.039226599 0.00097751606 0.99999899 0.00097751606
0.119883 0.061999999 0.0129973 0.00097751606 0.99999899 0.00097751606
0.066023998 0.061999999 0.0086836899 0.00097751606 0.99999899 0.00097751606
0.045961201 0.061999999 0.042034101 0.00097751606 0.99999899 0.00097751606
0.0127123 0.061999999 0.023273701 0.00097751606 0.99999899 0.00097751606
0.047398198 0.061999999 0.0128716 0.00097751606 0.99999899 0.00097751606
0.058928601 0.061999999 0.026307801 0.00097751606 0.99999899 0.00097751606
0.10409 0.061999999 0.0115534 0.00097751606 0.99999899 0.00097751606
0.067249298 0.061999999 0.0103516 0.00097751606 0.99999899 0.00097751606
0.040988602 0.061999999 0.0311228 0.00097751606 0.99999899 0.00097751606
0.059305701 0.061999999 0.0296531 0.00097751606 0.99999899 0.00097751606
0.031514201 0.061999999 0.069075704 0.00097751606 0.99999899 0.00097751606
0.080151401 0.061999999 0.0030513201 0.00097751606 0.99999899 0.00097751606
0.0058784699 0.061999999 0.0092039499 0.00097751606 0.99999899 0.00097751606
0.049259201 0.061999999 0.0257129 0.00097751606 0.99999899 0.00097751606
0.086465098 0.061999999 0.0111742 0.00097751606 0.99999899 0.00097751606
0.062386401 0.061999999 0.016109601 0.00097751606 0.99999899 0.00097751606
0.0178978 0.061999999 0.078953803 0.00097751606 0.99999899 0.00097751606
0.084759898 0.061999999 0.037018798 0.00097751606 0.99999899 0.00097751606
0.107129 0.061999999 0.0083079897 0.00097751606 0.99999899 0.00097751606
0.098778903 0.061999999 0.0140548 0.00097751606 0.99999899 0.00097751606
0.111105 0.061999999 0.0222729 0.00097751606 0.99999899 0.00097751606
0.0288502 0.061999999 0.032039799 0.00097751606 0.99999899 0.00097751606
0.063402601 0.061999999 0.052180301 0.00097751606 0.99999899 0.00097751606
0.024002099 0.061999999 0.053358801 0.00097751606 0.99999899 0.00097751606
0.138135 0.061999999 0.0024906499 0.00097751606 0.99999899 0.00097751606
0.051256601 0.061999999 0.0047628898 0.00097751606 0.99999899 0.00097751606
0.034570899 0.061999999 0.0275774 0.00097751606 0.99999899 0.00097751606
0.0233717 0.061999999 0.036527999 0.00097751606 0.99999899 0.00097751606
0.108437 0.061999999 0.017594799 0.00097751606 0.99999899 0.00097751606
0.114586 0.061999999 0.00058694201 0.00097751606 0.99999899 0.00097751606
0.106165 0.061999999 0.0096367896 0.00097751606 0.99999899 0.00097751606
0.028393 0.061999999 0.053974699 0.00097751606 0.99999899 0.00097751606
0.0219546 0.061999999 0.048743099 0.00097751606 0.99999899 0.00097751606
0.118767 0.061999999 0.0088517098 0.00097751606 0.99999899 0.00097751606
0.108054 0.061999999 0.0156243 0.00097751606 0.99999899 0.00097751606
0.066161297 0.061999999 0.0428418 0.00097751606 0.99999899 0.00097751606
0.022506 0.061999999 0.0589769 0.00097751606 0.99999899 0.00097751606
0.022477699 0.061999999 0.0308937 0.00097751606 0.99999899 0.00097751606
0.0504237 0.061999999 0.048082601 0.00097751606 0.99999899 0.00097751606
0.0344209 0.061999999 0.0267493 0.00097751606 0.99999899 0.00097751606
0.091082104 0.061999999 0.034443501 0.00097751606 0.99999899 0.00097751606
0.104217 0.061999999 0.0068176398 0.00097751606 0.99999899 0.00097751606
0.00527931 0.061999999 0.0504134 0.00097751606 0.99999899 0.00097751606
0.098743103 0.061999999 0.0131197 0.00097751606 0.99999899 0.00097751606
0.039423902 0.061999999 0.0091631301 0.00097751606 0.99999899 0.00097751606
0.0113798 0.061999999 0.0517984 0.00097751606 0.99999899 0.00097751606
0.0258944 0.061999999 0.044209301 0.00097751606 0.99999899 0.00097751606
0.0063391901 0.061999999 0.0297345 0.00097751606 0.99999899 0.00097751606
0.099369504 0.061999999 0.0177313 0.00097751606 0.99999899 0.00097751606
0.036605898 0.061999999 0.016951799 0.00097751606 0.99999899 0.00097751606
0.076505899 0.061999999 0.020437401 0.00097751606 0.99999899 0.00097751606
0.0579645 0.061999999 0.0234104 0.00097751606 0.99999899 0.00097751606
0.0262322 0.061999999 0.018352101 0.00097751606 0.99999899 0.00097751606
0.032736599 0.061999999 0.049298 0.00097751606 0.99999899 0.00097751606
0.082870103 0.061999999 0.0288321 0.00097751606 0.99999899 0.00097751606
0.101763 0.061999999 0.0137395 0.00097751606 0.99999899 0.00097751606
0.031383999 0.061999999 0.040045999 0.00097751606 0.99999899 0.00097751606
0.067353301 0.061999999 0.00149066 0.00097751606 0.99999899 0.00097751606
0.0036843501 0.061999999 0.048827201 0.00097751606 0.99999899 0.00097751606
0.076105997 0.061999999 0.00143724 0.00097751606 0.99999899 0.00097751606
0.063891999 0.061999999 0.038288001 0.00097751606 0.99999899 0.00097751606
0.027607299 0.061999999 0.0119537 0.00097751606 0.99999899 0.00097751606
0.020003 0.061999999 0.051102102 0.00097751606 0.99999899 0.00097751606
0.070002504 0.061999999 0.0032601201 0.00097751606 0.99999899 0.00097751606
0.056545101 0.061999999 0.0045382301 0.00097751606 0.99999899 0.00097751606
0.0402661 0.061999999 0.0574787 0.00097751606 0.99999899 0.00097751606
0.05263 0.061999999 0.057197001 0.00097751606 0.99999899 0.00097751606
0.063380301 0.061999999 0.027364001 0.00097751606 0.99999899 0.00097751606
0.040337101 0.061999999 0.032146499 0.00097751606 0.99999899 0.00097751606
0.000437877 0.061999999 0.0564011 0.00097751606 0.99999899 0.00097751606
0.020613899 0.061999999 0.0091835298 0.00097751606 0.99999899 0.00097751606
0.0039623999 0.061999999 0.055015098 0.00097751606 0.99999899 0.00097751606
0.00890416 0.061999999 0.046332899 0.00097751606 0.99999899 0.00097751606
0.0105471 0.061999999 0.0070060599 0.00097751606 0.99999899 0.00097751606
0.042374801 0.061999999 0.036598001 0.00097751606 0.99999899 0.00097751606
0.034184601 0.061999999 0.067990802 0.00097751606 0.99999899 0.00097751606
0.0132228 0.061999999 0.049781799 0.00097751606 0.99999899 0.00097751606
0.0642699 0.061999999 0.0393782 0.00097751606 0.99999899 0.00097751606
0.0188486 0.061999999 0.029491199 0.00097751606 0.99999899 0.00097751606
0.0275693 0.061999999 0.033970099 0.00097751606 0.99999899 0.00097751606
0.038167398 0.061999999 0.058589801 0.00097751606 0.99999899 0.00097751606
0.0263771 0.061999999 0.063749202 0.00097751606 0.99999899 0.00097751606
0.053931601 0.061999999 0.047261301 0.00097751606 0.99999899 0.00097751606
0.018944999 0.061999999 0.0193402 0.00097751606 0.99999899 0.00097751606
0.0279158 0.061999999 0.042606201 0.00097751606 0.99999899 0.00097751606
0.00017055099 0.061999999 0.048467599 0.00097751606 0.99999899 0.00097751606
0.043824699 0.061999999 0.030146001 0.00097751606 0.99999899 0.00097751606
0.042956099 0.061999999 0.0360673 0.00097751606 0.99999899 0.00097751606
0.0475998 0.061999999 0.055056699 0.00097751606 0.99999899 0.00097751606
0.016468201 0.061999999 0.048753701 0.00097751606 0.99999899 0.00097751606
0.0046035298 0.061999999 0.061772998 0.00097751606 0.99999899 0.00097751606
0.085349202 0.061999999 0.0118524 0.00097751606 0.99999899 0.00097751606
0.076304697 0.061999999 0.0068737799 0.00097751606 0.99999899 0.00097751606
0.082648903 0.061999999 0.0115622 0.00097751606 0.99999899 0.00097751606
0.0069573801 0.061999999 0.061963301 0.00097751606 0.99999899 0.00097751606
0.038773701 0.061999999 0.013447 0.00097751606 0.99999899 0.00097751606
0.129351 0.061999999 0.0063975402 0.00097751606 0.99999899 0.00097751606
0.058934301 0.061999999 0.0054187598 0.00097751606 0.99999899 0.00097751606
0.080830902 0.061999999 0.033309001 0.00097751606 0.99999899 0.00097751606
0.088155299 0.061999999 0.0101552 0.00097751606 0.99999899 0.00097751606
0.0069414601 0.061999999 0.029440099 0.00097751606 0.99999899 0.00097751606
0.080303803 0.061999999 0.0236325 0.00097751606 0.99999899 0.00097751606
0.120896 0.061999999 0.0054194299 0.00097751606 0.99999899 0.00097751606
0.082225002 0.061999999 0.028632401 0.00097751606 0.99999899 0.00097751606
0.0311231 0.061999999 0.053569 0.00097751606 0.99999899 0.00097751606
0.0494566 0.061999999 0.059367701 0.00097751606 0.99999899 0.00097751606
0.067029603 0.061999999 0.0056439098 0.00097751606 0.99999899 0.00097751606
0.076717503 0.061999999 0.035296101 0.00097751606 0.99999899 0.00097751606
0.0080546299 0.061999999 0.069635399 0.00097751606 0.99999899 0.00097751606
0.0043972 0.061999999 0.030162901 0.00097751606 0.99999899 0.00097751606
0.026281999 0.061999999 0.066096202 0.00097751606 0.99999899 0.00097751606
0.00083503401 0.061999999 0.0416172 0.00097751606 0.99999899 0.00097751606
0.0118554 0.061999999 0.083042197 0.00097751606 0.99999899 0.00097751606
0.0145943 0.061999999 0.074485801 0.00097751606 0.99999899 0.00097751606
0.026904499 0.061999999 0.0740133 0.00097751606 0.99999899 0.00097751606
0.098429203 0.061999999 0.00089231099 0.00097751606 0.99999899 0.00097751606
0.026047301 0.061999999 0.016105101 0.00097751606 0.99999899 0.00097751606
0.050903 0.061999999 0.017335899 0.00097751606 0.99999899 0.00097751606
0.103299 0.061999999 0.0064161802 0.00097751606 0.99999899 0.00097751606
0.060777299 0.061999999 0.0434222 0.00097751606 0.99999899 0.00097751606
0.0274067 0.061999999 0.049507201 0.00097751606 0.99999899 0.00097751606
0.00287218 0.061999999 0.0376487 0.00097751606 0.99999899 0.00097751606
0.038096599 0.061999999 0.0332601 0.00097751606 0.99999899 0.00097751606
0.035987701 0.061999999 0.0080328397 0.00097751606 0.99999899 0.00097751606
0.042955499 0.061999999 0.034812801 0.00097751606 0.99999899 0.00097751606
0.078107603 0.061999999 0.024119699 0.00097751606 0.99999899 0.00097751606
0.0238091 0.061999999 0.0104453 0.00097751606 0.99999899 0.00097751606
0.075012699 0.061999999 0.00106756 0.00097751606 0.99999899 0.00097751606
0.041207802 0.061999999 0.026495 0.00097751606 0.99999899 0.00097751606
0.056588199 0.061999999 0.000754137 0.00097751606 0.99999899 0.00097751606
0.11809 0.061999999 0.0081102699 0.00097751606 0.99999899 0.00097751606
0.0292868 0.061999999 0.053353101 0.00097751606 0.99999899 0.00097751606
0.022349101 0.061999999 0.070944197 0.00097751606 0.99999899 0.00097751606
0.050708301 0.061999999 0.039484799 0.00097751606 0.99999899 0.00097751606
0.0011809299 0.061999999 0.083700798 0.00097751606 0.99999899 0.00097751606
0.112247 0.061999999 0.0068044802 0.00097751606 0.99999899 0.00097751606
0.112297 0.061999999 0.0145288 0.00097751606 0.99999899 0.00097751606
0.0596365 0.061999999 0.025287701 0.00097751606 0.99999899 0.00097751606
0.060632799 0.061999999 0.0219895 0.00097751606 0.99999899 0.00097751606
0.072753303 0.061999999 0.0021039101 0.00097751606 0.99999899 0.00097751606
0.073349997 0.061999999 0.0154134 0.00097751606 0.99999899 0.00097751606
0.0462109 0.061999999 0.00581834 0.00097751606 0.99999899 0.00097751606
0.081469104 0.061999999 0.00171331 0.00097751606 0.99999899 0.00097751606
0.096132703 0.061999999 0.016112 0.00097751606 0.99999899 0.00097751606
0.027578499 0.061999999 0.034007501 0.00097751606 0.99999899 0.00097751606
0.02861 0.061999999 0.0091801099 0.00097751606 0.99999899 0.00097751606
0.0082265399 0.061999999 0.0148553 0.00097751606 0.99999899 0.00097751606
0.0145186 0.061999999 0.044266202 0.00097751606 0.99999899 0.00097751606
0.0343608 0.061999999 0.066177897 0.00097751606 0.99999899 0.00097751606
0.052385502 0.061999999 0.0494719 0.00097751606 0.99999899 0.00097751606
0.04397 0.061999999 0.026780801 0.00097751606 0.99999899 0.00097751606
0.0139246 0.061999999 0.042581901 0.00097751606 0.99999899 0.00097751606
0.0663701 0.061999999 0.049151 0.00097751606 0.99999899 0.00097751606
0.0464755 0.061999999 0.0303264 0.00097751606 0.99999899 0.00097751606
0.033956598 0.061999999 0.041997202 0.00097751606 0.99999899 0.00097751606
0.074782699 0.061999999 0.0081073102 0.00097751606 0.99999899 0.00097751606
0.0093173496 0.061999999 0.0404866 0.00097751606 0.99999899 0.00097751606
0.059849501 0.061999999 0.00654438 0.00097751606 0.99999899 0.00097751606
0.0472981 0.061999999 4.3556101e-05 0.00097751606 0.99999899 0.00097751606
0.043865599 0.061999999 0.046848498 0.00097751606 0.99999899 0.00097751606
0.0265646 0.061999999 0.0334513 0.00097751606 0.99999899 0.00097751606
0.138895 0.061999999 0.00067358901 0.00097751606 0.99999899 0.00097751606
0.0052897399 0.061999999 0.052498199 0.00097751606 0.99999899 0.00097751606
0.054624598 0.061999999 0.0065161502 0.00097751606 0.99999899 0.00097751606
0.076018497 0.061999999 0.0232697 0.00097751606 0.99999899 0.00097751606
0.0037617499 0.061999999 0.0432273 0.00097751606 0.99999899 0.00097751606
0.017454101 0.061999999 0.073825002 0.00097751606 0.99999899 0.00097751606
0.0188563 0.061999999 0.073275603 0.00097751606 0.99999899 0.00097751606
0.077290103 0.061999999 0.0298099 0.00097751606 0.99999899 0.00097751606
0.0440487 0.061999999 0.039272498 0.00097751606 0.99999899 0.00097751606
0.0155921 0.061999999 0.0070943199 0.00097751606 0.99999899 0.00097751606
0.124343 0.061999999 0.00665808 0.00097751606 0.99999899 0.00097751606
0.0801557 0.061999999 0.0048180399 0.00097751606 0.99999899 0.00097751606
0.0248239 0.061999999 0.0123719 0.00097751606 0.99999899 0.00097751606
0.0140164 0.061999999 0.057335101 0.00097751606 0.99999899 0.00097751606
0.065242097 0.061999999 0.0081617497 0.00097751606 0.99999899 0.00097751606
0.042609502 0.061999999 0.0403734 0.00097751606 0.99999899 0.00097751606
0.018779 0.061999999 0.034956999 0.00097751606 0.99999899 0.00097751606
0.110023 0.061999999 0.00221966 0.00097751606 0.99999899 0.00097751606
0.0220141 0.061999999 0.039046802 0.00097751606 0.99999899 0.00097751606
0.0251687 0.061999999 0.062347598 0.00097751606 0.99999899 0.00097751606
0.055467598 0.061999999 0.0343551 0.00097751606 0.99999899 0.00097751606
0.018201601 0.061999999 0.0404507 0.00097751606 0.99999899 0.00097751606
0.064168997 0.061999999 0.035554301 0.00097751606 0.99999899 0.00097751606
0.0127107 0.061999999 0.048296701 0.00097751606 0.99999899 0.00097751606
0.0274256 0.061999999 0.067206398 0.00097751606 0.99999899 0.00097751606
0.016470701 0.061999999 0.021765601 0.00097751606 0.99999899 0.00097751606
0.0312114 0.061999999 0.071468301 0.00097751606 0.99999899 0.00097751606
0.048660699 0.061999999 0.00375706 0.00097751606 0.99999899 0.00097751606
0.047733799 0.061999999 0.046257399 0.00097751606 0.99999899 0.00097751606
0.128659 0.061999999 0.0084138298 0.00097751606 0.99999899 0.00097751606
0.0097797904 0.061999999 0.0137202 0.00097751606 0.99999899 0.00097751606
0.026752399 0.061999999 0.0256768 0.00097751606 0.99999899 0.00097751606
0.0016956 0.061999999 0.074806899 0.00097751606 0.99999899 0.00097751606
0.037627701 0.061999999 0.055721398 0.00097751606 0.99999899 0.00097751606
0.0123647 0.061999999 0.052929699 0.00097751606 0.99999899 0.00097751606
0.047742501 0.061999999 0.060159501 0.00097751606 0.99999899 0.00097751606
0.0099424403 0.061999999 0.068194203 0.00097751606 0.99999899 0.00097751606
0.0236167 0.061999999 0.038063899 0.00097751606 0.99999899 0.00097751606
0.013384 0.061999999 0.082974501 0.00097751606 0.99999899 0.00097751606
0.076475702 0.061999999 0.0106739 0.00097751606 0.99999899 0.00097751606
0.0025456699 0.061999999 0.064992398 0.00097751606 0.99999899 0.00097751606
0.0047950698 0.061999999 0.055994902 0.00097751606 0.99999899 0.00097751606
0.00549347 0.061999999 0.0366382 0.00097751606 0.99999899 0.00097751606
0.076654799 0.061999999 0.0328083 0.00097751606 0.99999899 0.00097751606
0.105273 0.061999999 0.020843999 0.00097751606 0.99999899 0.00097751606
0.085205503 0.061999999 0.024797801 0.00097751606 0.99999899 0.00097751606
0.083438598 0.061999999 0.0056539001 0.00097751606 0.99999899 0.00097751606
0.0343199 0.061999999 0.044186201 0.00097751606 0.99999899 0.00097751606
0.062674403 0.061999999 0.017098 0.00097751606 0.99999899 0.00097751606
0.045359802 0.061999999 0.0097847003 0.00097751606 0.99999899 0.00097751606
0.13767301 0.061999999 0.0052644801 0.00097751606 0.99999899 0.00097751606
0.064071 0.061999999 0.038446002 0.00097751606 0.99999899 0.00097751606
0.045259502 0.061999999 0.0491095 0.00097751606 0.99999899 0.00097751606
0.028582299 0.061999999 0.0147954 0.00097751606 0.99999899 0.00097751606
0.055148002 0.061999999 0.051405098 0.00097751606 0.99999899 0.00097751606
0.042523 0.061999999 0.060164802 0.00097751606 0.99999899 0.00097751606
0.041624699 0.061999999 0.065786503 0.00097751606 0.99999899 0.00097751606
0.045371301 0.061999999 0.00127127 0.00097751606 0.99999899 0.00097751606
0.041583199 0.061999999 0.0395419 0.00097751606 0.99999899 0.00097751606
0.078250103 0.061999999 0.0110586 0.00097751606 0.99999899 0.00097751606
0.0125276 0.061999999 0.0022989199 0.00097751606 0.99999899 0.00097751606
0.0102336 0.061999999 0.081994802 0.00097751606 0.99999899 0.00097751606
0.042720299 0.061999999 0.015803 0.00097751606 0.99999899 0.00097751606
0.0089229196 0.061999999 0.084389597 0.00097751606 0.99999899 0.00097751606
0.00390922 0.061999999 0.072420098 0.00097751606 0.99999899 0.00097751606
0.021861801 0.061999999 0.0276659 0.00097751606 0.99999899 0.00097751606
0.0089153498 0.061999999 0.073658302 0.00097751606 0.99999899 0.00097751606
0.0078228097 0.061999999 0.048347801 0.00097751606 0.99999899 0.00097751606
0.046994001 0.061999999 0.0054919999 0.00097751606 0.99999899 0.00097751606
0.035904299 0.061999999 0.040037099 0.00097751606 0.99999899 0.00097751606
0.0320266 0.061999999 0.0608477 0.00097751606 0.99999899 0.00097751606
0.045258 0.061999999 0.033913001 0.00097751606 0.99999899 0.00097751606
0.068138197 0.061999999 0.027752999 0.00097751606 0.99999899 0.00097751606
0.00114096 0.061999999 0.018031601 0.00097751606 0.99999899 0.00097751606
0.083254203 0.061999999 0.031542499 0.00097751606 0.99999899 0.00097751606
0.0150677 0.061999999 0.064190097 0.00097751606 0.99999899 0.00097751606
0.00919428 0.061999999 0.0315472 0.00097751606 0.99999899 0.00097751606
0.021917401 0.061999999 0.075964198 0.00097751606 0.99999899 0.00097751606
0.0805851 0.061999999 0.0058600102 0.00097751606 0.99999899 0.00097751606
0.060192 0.061999999 0.049762402 0.00097751606 0.99999899 0.00097751606
0.089670703 0.061999999 0.029577101 0.00097751606 0.99999899 0.00097751606
0.000846132 0.061999999 0.081382602 0.00097751606 0.99999899 0.00097751606
0.051466599 0.061999999 0.046638802 0.00097751606 0.99999899 0.00097751606
0.026409199 0.061999999 0.0076763202 0.00097751606 0.99999899 0.00097751606
0.0091391001 0.061999999 0.081534997 0.00097751606 0.99999899 0.00097751606
0.019114001 0.061999999 0.0309176 0.00097751606 0.99999899 0.00097751606
0.0362086 0.061999999 0.063691601 0.00097751606 0.99999899 0.00097751606
0.0144448 0.061999999 0.0340029 0.00097751606 0.99999899 0.00097751606
0.044141799 0.061999999 0.043989301 0.00097751606 0.99999899 0.00097751606
0.114043 0.061999999 0.0042163501 0.00097751606 0.99999899 0.00097751606
0.032056499 0.061999999 0.054682601 0.00097751606 0.99999899 0.00097751606
0.0099913804 0.061999999 0.074058503 0.00097751606 0.99999899 0.00097751606
0.0776098 0.061999999 0.0064122099 0.00097751606 0.99999899 0.00097751606
0.0435941 0.061999999 0.020393999 0.00097751606 0.99999899 0.00097751606
0.016259501 0.061999999 0.018574201 0.00097751606 0.99999899 0.00097751606
0.102386 0.061999999 0.00093763898 0.00097751606 0.99999899 0.00097751606
0.112037 0.061999999 0.00083489902 0.00097751606 0.99999899 0.00097751606
0.00526798 0.061999999 0.087129898 0.00097751606 0.99999899 0.00097751606
0.030370999 0.061999999 0.016896199 0.00097751606 0.99999899 0.00097751606
0.059929401 0.061999999 0.0109754 0.00097751606 0.99999899 0.00097751606
0.017726099 0.061999999 0.069650903 0.00097751606 0.99999899 0.00097751606
0.104591 0.061999999 0.0065608998 0.00097751606 0.99999899 0.00097751606
0.109282 0.061999999 0.0162328 0.00097751606 0.99999899 0.00097751606
0.047686499 0.061999999 0.0023328799 0.00097751606 0.99999899 0.00097751606
0.057619099 0.061999999 0.0366778 0.00097751606 0.99999899 0.00097751606
0.13626 0.061999999 0.0062450501 0.00097751606 0.99999899 0.00097751606
0.028432 0.061999999 0.0619202 0.00097751606 0.99999899 0.00097751606
0.0045336098 0.061999999 0.059333399 0.00097751606 0.99999899 0.00097751606
0.080847003 0.061999999 0.011595 0.00097751606 0.99999899 0.00097751606
0.0084816599 0.061999999 0.0151876 0.00097751606 0.99999899 0.00097751606
0.078366101 0.061999999 0.0128956 0.00097751606 0.99999899 0.00097751606
0.0080595501 0.061999999 0.073337898 0.00097751606 0.99999899 0.00097751606
0.043907002 0.061999999 0.030284099 0.00097751606 0.99999899 0.00097751606
0.051479101 0.061999999 0.0056242002 0.00097751606 0.99999899 0.00097751606
0.079620801 0.061999999 0.027497999 0.00097751606 0.99999899 0.00097751606
0.0245084 0.061999999 0.067677401 0.00097751606 0.99999899 0.00097751606
0.033961698 0.061999999 0.0101912 0.00097751606 0.99999899 0.00097751606
0.058148101 0.061999999 0.0535971 0.00097751606 0.99999899 0.00097751606
0.032917101 0.061999999 0.041467901 0.00097751606 0.99999899 0.00097751606
0.058577199 0.061999999 0.00279907 0.00097751606 0.99999899 0.00097751606
0.0104806 0.061999999 0.067378603 0.00097751606 0.99999899 0.00097751606
0.035488799 0.061999999 0.0211473 0.00097751606 0.99999899 0.00097751606
0.10757 0.061999999 0.0145359 0.00097751606 0.99999899 0.00097751606
0.033810999 0.061999999 0.050974801 0.00097751606 0.99999899 0.00097751606
0.066224001 0.061999999 0.031505801 0.00097751606 0.99999899 0.00097751606
0.070657201 0.061999999 0.046481799 0.00097751606 0.99999899 0.00097751606
0.040563799 0.061999999 0.052892201 0.00097751606 0.99999899 0.00097751606
0.0163443 0.061999999 0.0065984698 0.00097751606 0.99999899 0.00097751606
0.0226625 0.061999999 0.0077847801 0.00097751606 0.99999899 0.00097751606
0.091982201 0.061999999 0.000113867 0.00097751606 0.99999899 0.00097751606
0.083367899 0.061999999 0.00725258 0.00097751606 0.99999899 0.00097751606
0.00793943 0.061999999 0.077841602 0.00097751606 0.99999899 0.00097751606
0.017633701 0.061999999 0.0367526 0.00097751606 0.99999899 0.00097751606
0.035244402 0.061999999 0.0083340704 0.00097751606 0.99999899 0.00097751606
0.0136327 0.061999999 0.0056927698 0.00097751606 0.99999899 0.00097751606
0.052069601 0.061999999 0.052885301 0.00097751606 0.99999899 0.00097751606
0.0576596 0.061999999 0.0196753 0.00097751606 0.99999899 0.00097751606
0.098205797 0.061999999 0.0209327 0.00097751606 0.99999899 0.00097751606
0.035073701 0.061999999 0.023235099 0.00097751606 0.99999899 0.00097751606
0.068149298 0.061999999 0.039708 0.00097751606 0.99999899 0.00097751606
0.056091301 0.061999999 0.0150896 0.00097751606 0.99999899 0.00097751606
0.029374 0.061999999 0.0250655 0.00097751606 0.99999899 0.00097751606
0.103937 0.061999999 0.0239549 0.00097751606 0.99999899 0.00097751606
0.0432816 0.061999999 0.032193799 0.00097751606 0.99999899 0.00097751606
0.031733502 0.061999999 0.033085901 0.00097751606 0.99999899 0.00097751606
0.016607501 0.061999999 0.0070762602 0.00097751606 0.99999899 0.00097751606
0.0106637 0.061999999 0.039411802 0.00097751606 0.99999899 0.00097751606
0.088736102 0.061999999 0.00501678 0.00097751606 0.99999899 0.00097751606
0.083368503 0.061999999 0.037699599 0.00097751606 0.99999899 0.00097751606
0.039112698 0.061999999 0.0143718 0.00097751606 0.99999899 0.00097751606
0.035747599 0.061999999 0.0286039 0.00097751606 0.99999899 0.00097751606
0.097406097 0.061999999 0.00357604 0.00097751606 0.99999899 0.00097751606
0.041418102 0.061999999 0.0240034 0.00097751606 0.99999899 0.00097751606
0.061980501 0.061999999 0.033091702 0.00097751606 0.99999899 0.00097751606
0.063549697 0.061999999 0.025792699 0.00097751606 0.99999899 0.00097751606
0.0168218 0.061999999 0.0219767 0.00097751606 0.99999899 0.00097751606
0.025805799 0.061999999 0.0388478 0.00097751606 0.99999899 0.00097751606
0.0052956399 0.061999999 0.056165799 0.00097751606 0.99999899 0.00097751606
0.027463799 0.061999999 0.070500501 0.00097751606 0.99999899 0.00097751606
0.0091932304 0.061999999 0.066504098 0.00097751606 0.99999899 0.00097751606
0.038165599 0.061999999 0.062591903 0.00097751606 0.99999899 0.00097751606
0.032518402 0.061999999 0.0298253 0.00097751606 0.99999899 0.00097751606
0.069539897 0.061999999 0.0155785 0.00097751606 0.99999899 0.00097751606
0.068020403 0.061999999 0.039448801 0.00097751606 0.99999899 0.00097751606
0.035711002 0.061999999 0.0026378301 0.00097751606 0.99999899 0.00097751606
0.092233203 0.061999999 0.0152713 0.00097751606 0.99999899 0.00097751606
0.0106776 0.061999999 0.0182535 0.00097751606 0.99999899 0.00097751606
0.099881403 0.061999999 0.0223915 0.00097751606 0.99999899 0.00097751606
0.053754602 0.061999999 0.0271712 0.00097751606 0.99999899 0.00097751606
0.071832597 0.061999999 0.028934199 0.00097751606 0.99999899 0.00097751606
0.022222999 0.061999999 0.046155799 0.00097751606 0.99999899 0.00097751606
0.0658096 0.061999999 0.0278902 0.00097751606 0.99999899 0.00097751606
0.094227403 0.061999999 0.0034429401 0.00097751606 0.99999899 0.00097751606
0.111384 0.061999999 0.0068085701 0.00097751606 0.99999899 0.00097751606
0.00050460501 0.061999999 0.037705898 0.00097751606 0.99999899 0.00097751606
0.015701201 0.061999999 0.0500797 0.00097751606 0.99999899 0.00097751606
0.0123357 0.061999999 0.0298333 0.00097751606 0.99999899 0.00097751606
0.050436102 0.061999999 0.047033701 0.00097751606 0.99999899 0.00097751606
0.085551299 0.061999999 0.026865 0.00097751606 0.99999899 0.00097751606
0.0653354 0.061999999 0.0264736 0.00097751606 0.99999899 0.00097751606
0.060483199 0.061999999 0.0432599 0.00097751606 0.99999899 0.00097751606
0.053910099 0.061999999 0.0119832 0.00097751606 0.99999899 0.00097751606
0.038484801 0.061999999 0.042564601 0.00097751606 0.99999899 0.00097751606
0.0073391199 0.061999999 0.0826272 0.00097751606 0.99999899 0.00097751606
0.045414001 0.061999999 0.0375457 0.00097751606 0.99999899 0.00097751606
0.0098299198 0.061999999 0.015774401 0.00097751606 0.99999899 0.00097751606
0.0083214799 0.061999999 0.0065870802 0.00097751606 0.99999899 0.00097751606
0.0816622 0.061999999 0.0198342 0.00097751606 0.99999899 0.00097751606
0.018172201 0.061999999 0.0580508 0.00097751606 0.99999899 0.00097751606
0.064109102 0.061999999 0.0097076399 0.00097751606 0.99999899 0.00097751606
0.112755 0.061999999 0.0081299199 0.00097751606 0.99999899 0.00097751606
0.062104501 0.061999999 0.036906201 0.00097751606 0.99999899 0.00097751606
0.070308097 0.061999999 0.0464071 0.00097751606 0.99999899 0.00097751606
0.0143782 0.061999999 0.073243901 0.00097751606 0.99999899 0.00097751606
0.0184708 0.061999999 0.0392767 0.00097751606 0.99999899 0.00097751606
0.048827201 0.061999999 0.0283249 0.00097751606 0.99999899 0.00097751606
0.051339801 0.061999999 0.0151367 0.00097751606 0.99999899 0.00097751606
0.0434637 0.061999999 0.060996499 0.00097751606 0.99999899 0.00097751606
0.017779 0.061999999 0.036668599 0.00097751606 0.99999899 0.00097751606
0.036510799 0.061999999 0.036649302 0.00097751606 0.99999899 0.00097751606
0.102619 0.061999999 0.0233215 0.00097751606 0.99999899 0.00097751606
0.0073631098 0.061999999 0.0291683 0.00097751606 0.99999899 0.00097751606
0.067802504 0.061999999 0.0305943 0.00097751606 0.99999899 0.00097751606
0.088078201 0.061999999 0.035704199 0.00097751606 0.99999899 0.00097751606
0.061675899 0.061999999 0.047179598 0.00097751606 0.99999899 0.00097751606
0.0396563 0.061999999 0.0411794 0.00097751606 0.99999899 0.00097751606
0.026820499 0.061999999 0.00434775 0.00097751606 0.99999899 0.00097751606
0.034311399 0.061999999 0.066373996 0.00097751606 0.99999899 0.00097751606
0.017067701 0.061999999 0.052570999 0.00097751606 0.99999899 0.00097751606
0.038079701 0.061999999 0.051027 0.00097751606 0.99999899 0.00097751606
0.0146252 0.061999999 0.048317201 0.00097751606 0.99999899 0.00097751606
0.110015 0.061999999 0.00180364 0.00097751606 0.99999899 0.00097751606
0.073906198 0.061999999 0.0258855 0.00097751606 0.99999899 0.00097751606
0.0443113 0.061999999 0.00333043 0.00097751606 0.99999899 0.00097751606
0.068961002 0.061999999 0.041637801 0.00097751606 0.99999899 0.00097751606
0.088927701 0.061999999 0.017258501 0.00097751606 0.99999899 0.00097751606
0.0480735 0.061999999 0.00740699 0.00097751606 0.99999899 0.00097751606
0.0378839 0.061999999 0.022320099 0.00097751606 0.99999899 0.00097751606
0.038638402 0.061999999 0.0083834501 0.00097751606 0.99999899 0.00097751606
0.046795301 0.061999999 0.0295294 0.00097751606 0.99999899 0.00097751606
0.0144396 0.061999999 0.0155929 0.00097751606 0.99999899 0.00097751606
0.0353209 0.061999999 0.064943001 0.00097751606 0.99999899 0.00097751606
0.113001 0.061999999 0.0049210498 0.00097751606 0.99999899 0.00097751606
0.040781699 0.061999999 0.031996999 0.00097751606 0.99999899 0.00097751606
0.017217901 0.061999999 0.0431647 0.00097751606 0.99999899 0.00097751606
0.102935 0.061999999 0.0198189 0.00097751606 0.99999899 0.00097751606
0.088097498 0.061999999 0.0033442799 0.00097751606 0.99999899 0.00097751606
0.0107528 0.061999999 0.070219703 0.00097751606 0.99999899 0.00097751606
0 0.0116837 0.088927798 0.99999899 0.00097751606 0.00097751606
0 0.054681402 0.091032602 0.99999899 0.00097751606 0.00097751606
0 0.0276119 0.078454196 0.99999899 0.00097751606 0.00097751606
0 0.0239834 0.091172099 0.99999899 0.00097751606 0.00097751606
0 0.0476362 0.0326862 0.99999899 0.00097751606 0.00097751606
0 0.044333499 0.080994897 0.99999899 0.00097751606 0.00097751606
0 0.048575599 0.079577297 0.99999899 0.00097751606 0.00097751606
0 0.00614544 0.087812297 0.99999899 0.00097751606 0.00097751606
0 0.0406233 0.035503399 0.99999899 0.00097751606 0.00097751606
0 0.0190069 0.090340801 0.99999899 0.00097751606 0.00097751606
0 0.037870198 0.0373477 0.99999899 0.00097751606 0.00097751606
0 0.048318099 0.084206998 0.99999899 0.00097751606 0.00097751606
0 0.0511702 0.073971197 0.99999899 0.00097751606 0.00097751606
0 0.043979902 0.088842899 0.99999899 0.00097751606 0.00097751606
0 0.025811801 0.083134599 0.99999899 0.00097751606 0.00097751606
0 0.042937599 0.042804401 0.99999899 0.00097751606 0.00097751606
0 0.028654801 0.084770799 0.99999899 0.00097751606 0.00097751606
0 0.041267399 0.052702501 0.99999899 0.00097751606 0.00097751606
0 0.053263199 0.0286116 0.99999899 0.00097751606 0.00097751606
0 0.017358299 0.078710802 0.99999899 0.00097751606 0.00097751606
0 0.0574615 0.0099666398 0.99999899 0.00097751606 0.00097751606
0 0.0284253 0.079188801 0.99999899 0.00097751606 0.00097751606
0 0.0141342 0.072677299 0.99999899 0.00097751606 0.00097751606
0 0.0059036301 0.0869416 0.99999899 0.00097751606 0.00097751606
0 0.047240399 0.035326999 0.99999899 0.00097751606 0.00097751606
0 0.029116601 0.0850771 0.99999899 0.00097751606 0.00097751606
0 0.024070401 0.063171104 0.99999899 0.00097751606 0.00097751606
0 0.040573001 0.0474413 0.99999899 0.00097751606 0.00097751606
0 0.056692101 0.087454699 0.99999899 0.00097751606 0.00097751606
0 0.049867701 0.0637943 0.99999899 0.00097751606 0.00097751606
0 0.0406508 0.069818802 0.99999899 0.00097751606 0.00097751606
0 0.045357801 0.086753704 0.99999899 0.00097751606 0.00097751606
0 0.0222109 0.063266203 0.99999899 0.00097751606 0.00097751606
0 0.0430879 0.065288298 0.99999899 0.00097751606 0.00097751606
0 0.049529701 0.046779301 0.99999899 0.00097751606 0.00097751606
0 0.041921701 0.030585701 0.99999899 0.00097751606 0.00097751606
0 0.046316698 0.034066498 0.99999899 0.00097751606 0.00097751606
0 0.047204599 0.048148699 0.99999899 0.00097751606 0.00097751606
0 0.017974701 0.088449404 0.99999899 0.00097751606 0.00097751606
0 0.0283399 0.0906564 0.99999899 0.00097751606 0.00097751606
0 0.041249599 0.0533912 0.99999899 0.00097751606 0.00097751606
0 0.052424699 0.036035299 0.99999899 0.00097751606 0.00097751606
0 0.045447201 0.062024198 0.99999899 0.00097751606 0.00097751606
0 0.051755302 0.089666098 0.99999899 0.00097751606 0.00097751606
0 0.0529976 0.0246889 0.99999899 0.00097751606 0.00097751606
0 0.0483936 0.0303239 0.99999899 0.00097751606 0.00097751606
0 0.0505835 0.027385401 0.99999899 0.00097751606 0.00097751606
0 0.038952202 0.0466699 0.99999899 0.00097751606 0.00097751606
0 0.0300788 0.051513702 0.99999899 0.00097751606 0.00097751606
0 0.034473799 0.058475301 0.99999899 0.00097751606 0.00097751606
0 0.036014002 0.054202601 0.99999899 0.00097751606 0.00097751606
0 0.046015099 0.052311201 0.99999899 0.00097751606 0.00097751606
0 0.0413545 0.040180899 0.99999899 0.00097751606 0.00097751606
0 0.046084698 0.052767299 0.99999899 0.00097751606 0.00097751606
0 0.058652598 0.077081002 0.99999899 0.00097751606 0.00097751606
0 0.045058999 0.065215498 0.99999899 0.00097751606 0.00097751606
0 0.051182698 0.0564714 0.99999899 0.00097751606 0.00097751606
0 0.0398231 0.091570601 0.99999899 0.00097751606 0.00097751606
0 0.045336299 0.038726199 0.99999899 0.00097751606 0.00097751606
0 0.047729101 0.041141499 0.99999899 0.00097751606 0.00097751606
0 0.0300173 0.071297497 0.99999899 0.00097751606 0.00097751606
0 0.0432528 0.074024498 0.99999899 0.00097751606 0.00097751606
0 0.022826901 0.062549002 0.99999899 0.00097751606 0.00097751606
0 0.030642699 0.086261801 0.99999899 0.00097751606 0.00097751606
0 0.033675998 0.048068099 0.99999899 0.00097751606 0.00097751606
0 0.057758 0.0517173 0.99999899 0.00097751606 0.00097751606
0 0.051946599 0.0353624 0.99999899 0.00097751606 0.00097751606
