# .PCD v0.7 - Point Cloud Data file format
VERSION 0.7
FIELDS x y z normal_x normal_y normal_z
SIZE 4 4 4 4 4 4
TYPE F F F F F F
COUNT 1 1 1 1 1 1
WIDTH 790
HEIGHT 1
VIEWPOINT 0 0 0 1 0 0 0
POINTS 790
DATA ascii
0 7.8329902 17.438601 -0.99999899 0.00097751606 0.00097751606
0 3.2590699 88.671303 -0.99999899 0.00097751606 0.00097751606
0 11.9505 26.6866 -0.99999899 0.00097751606 0.00097751606
0 16.097601 84.107903 -0.99999899 0.00097751606 0.00097751606
0 27.159401 69.4533 -0.99999899 0.00097751606 0.00097751606
0 0.93659502 35.641201 -0.99999899 0.00097751606 0.00097751606
0 43.292301 75.130203 -0.99999899 0.00097751606 0.00097751606
0 36.060001 68.861801 -0.99999899 0.00097751606 0.00097751606
0 26.1637 58.872601 -0.99999899 0.00097751606 0.00097751606
0 27.2152 57.575001 -0.99999899 0.00097751606 0.00097751606
0 43.796001 70.561699 -0.99999899 0.00097751606 0.00097751606
0 3.71241 47.2761 -0.99999899 0.00097751606 0.00097751606
0 7.7502398 24.115601 -0.99999899 0.00097751606 0.00097751606
0 24.520399 62.814201 -0.99999899 0.00097751606 0.00097751606
0 2.24629 54.7005 -0.99999899 0.00097751606 0.00097751606
0 17.4634 35.343899 -0.99999899 0.00097751606 0.00097751606
0 38.1744 83.8722 -0.99999899 0.00097751606 0.00097751606
0 36.597599 59.5327 -0.99999899 0.00097751606 0.00097751606
0 11.9275 50.735901 -0.99999899 0.00097751606 0.00097751606
0 39.3992 73.681999 -0.99999899 0.00097751606 0.00097751606
0 19.820801 65.043297 -0.99999899 0.00097751606 0.00097751606
0 33.824799 51.652599 -0.99999899 0.00097751606 0.00097751606
0 36.194099 88.079201 -0.99999899 0.00097751606 0.00097751606
0 30.7391 67.007797 -0.99999899 0.00097751606 0.00097751606
0 31.564899 65.3069 -0.99999899 0.00097751606 0.00097751606
0 0.74670702 35.1138 -0.99999899 0.00097751606 0.00097751606
0 33.452 71.651703 -0.99999899 0.00097751606 0.00097751606
0 9.2174101 60.8489 -0.99999899 0.00097751606 0.00097751606
0 22.077101 50.038502 -0.99999899 0.00097751606 0.00097751606
0 42.249802 74.256599 -0.99999899 0.00097751606 0.00097751606
0 55.4562 84.705902 -0.99999899 0.00097751606 0.00097751606
0 33.375702 91.6922 -0.99999899 0.00097751606 0.00097751606
0 5.0873899 34.377602 -0.99999899 0.00097751606 0.00097751606
0 10.3398 65.906303 -0.99999899 0.00097751606 0.00097751606
0 15.9527 56.608501 -0.99999899 0.00097751606 0.00097751606
0 19.6173 55.312901 -0.99999899 0.00097751606 0.00097751606
0 18.5422 86.8386 -0.99999899 0.00097751606 0.00097751606
0 18.3046 82.350304 -0.99999899 0.00097751606 0.00097751606
0 11.1309 91.449799 -0.99999899 0.00097751606 0.00097751606
0 15.629 60.8181 -0.99999899 0.00097751606 0.00097751606
0 1.44227 77.622498 -0.99999899 0.00097751606 0.00097751606
0 24.569401 71.306396 -0.99999899 0.00097751606 0.00097751606
0 11.7717 69.700302 -0.99999899 0.00097751606 0.00097751606
0 28.071699 63.062302 -0.99999899 0.00097751606 0.00097751606
0 59.903801 89.062302 -0.99999899 0.00097751606 0.00097751606
0 18.641899 55.635502 -0.99999899 0.00097751606 0.00097751606
0 34.6287 77.072098 -0.99999899 0.00097751606 0.00097751606
0 15.3337 85.804703 -0.99999899 0.00097751606 0.00097751606
0 22.852301 68.584297 -0.99999899 0.00097751606 0.00097751606
0 20.1362 67.501404 -0.99999899 0.00097751606 0.00097751606
0 15.2093 27.175501 -0.99999899 0.00097751606 0.00097751606
0 30.7286 88.429497 -0.99999899 0.00097751606 0.00097751606
0 23.054701 87.878403 -0.99999899 0.00097751606 0.00097751606
0 11.2169 60.2878 -0.99999899 0.00097751606 0.00097751606
0 18.365101 87.821899 -0.99999899 0.00097751606 0.00097751606
0 17.242901 47.368301 -0.99999899 0.00097751606 0.00097751606
0 17.5366 36.239601 -0.99999899 0.00097751606 0.00097751606
0 14.5361 78.976402 -0.99999899 0.00097751606 0.00097751606
0 6.90696 61.8522 -0.99999899 0.00097751606 0.00097751606
0 24.365601 73.277 -0.99999899 0.00097751606 0.00097751606
0 46.076801 83.046402 -0.99999899 0.00097751606 0.00097751606
0 6.8962798 43.3438 -0.99999899 0.00097751606 0.00097751606
0 45.839401 73.778603 -0.99999899 0.00097751606 0.00097751606
0 13.8455 41.776699 -0.99999899 0.00097751606 0.00097751606
0 8.6817799 60.043098 -0.99999899 0.00097751606 0.00097751606
0 11.8463 70.927002 -0.99999899 0.00097751606 0.00097751606
0 29.230499 49.309101 -0.99999899 0.00097751606 0.00097751606
0 14.5484 72.442398 -0.99999899 0.00097751606 0.00097751606
0 21.8871 88.653297 -0.99999899 0.00097751606 0.00097751606
0 3.82146 80.100998 -0.99999899 0.00097751606 0.00097751606
0 1.38039 79.108299 -0.99999899 0.00097751606 0.00097751606
0 12.1351 57.189301 -0.99999899 0.00097751606 0.00097751606
0 34.588299 86.608803 -0.99999899 0.00097751606 0.00097751606
0 29.2087 71.812897 -0.99999899 0.00097751606 0.00097751606
0 28.1262 61.489601 -0.99999899 0.00097751606 0.00097751606
0 22.719101 76.620598 -0.99999899 0.00097751606 0.00097751606
0 17.9132 49.6497 -0.99999899 0.00097751606 0.00097751606
0 0.55128002 41.224499 -0.99999899 0.00097751606 0.00097751606
0 33.339199 77.119102 -0.99999899 0.00097751606 0.00097751606
0 2.8881299 75.707298 -0.99999899 0.00097751606 0.00097751606
0 53.758701 89.661797 -0.99999899 0.00097751606 0.00097751606
0 44.675098 86.877502 -0.99999899 0.00097751606 0.00097751606
0 27.623301 70.364899 -0.99999899 0.00097751606 0.00097751606
0 51.676899 86.084297 -0.99999899 0.00097751606 0.00097751606
0 11.0736 63.378101 -0.99999899 0.00097751606 0.00097751606
0 10.4019 68.2397 -0.99999899 0.00097751606 0.00097751606
0 9.6800203 40.2687 -0.99999899 0.00097751606 0.00097751606
0 31.508101 71.205101 -0.99999899 0.00097751606 0.00097751606
0 2.3712101 50.250198 -0.99999899 0.00097751606 0.00097751606
0 15.3566 81.339798 -0.99999899 0.00097751606 0.00097751606
0 10.9148 17.478001 -0.99999899 0.00097751606 0.00097751606
0 26.291901 44.707401 -0.99999899 0.00097751606 0.00097751606
0 52.6306 82.336098 -0.99999899 0.00097751606 0.00097751606
0 0.276319 82.689102 -0.99999899 0.00097751606 0.00097751606
0 34.622002 80.2957 -0.99999899 0.00097751606 0.00097751606
0 32.887501 75.496696 -0.99999899 0.00097751606 0.00097751606
0 8.53055 44.4459 -0.99999899 0.00097751606 0.00097751606
0 31.309799 87.516602 -0.99999899 0.00097751606 0.00097751606
0 5.8161101 72.977699 -0.99999899 0.00097751606 0.00097751606
0 29.7672 48.7061 -0.99999899 0.00097751606 0.00097751606
0 26.608299 57.233299 -0.99999899 0.00097751606 0.00097751606
0 18.566099 50.105099 -0.99999899 0.00097751606 0.00097751606
0 16.375799 38.130501 -0.99999899 0.00097751606 0.00097751606
0 29.5224 69.419601 -0.99999899 0.00097751606 0.00097751606
0 27.4002 83.821297 -0.99999899 0.00097751606 0.00097751606
0 7.9265199 74.966797 -0.99999899 0.00097751606 0.00097751606
0 27.914301 71.406303 -0.99999899 0.00097751606 0.00097751606
0 16.737801 82.604698 -0.99999899 0.00097751606 0.00097751606
0 46.7491 79.426598 -0.99999899 0.00097751606 0.00097751606
0 33.071899 68.756599 -0.99999899 0.00097751606 0.00097751606
0 35.494301 54.826801 -0.99999899 0.00097751606 0.00097751606
0 11.1806 39.398102 -0.99999899 0.00097751606 0.00097751606
0 41.901199 73.594902 -0.99999899 0.00097751606 0.00097751606
0 8.1838198 51.691399 -0.99999899 0.00097751606 0.00097751606
0 37.808701 66.414001 -0.99999899 0.00097751606 0.00097751606
0 5.1596699 17.459 -0.99999899 0.00097751606 0.00097751606
0 20.357 35.871498 -0.99999899 0.00097751606 0.00097751606
0 45.3643 87.823799 -0.99999899 0.00097751606 0.00097751606
0 21.085699 41.948799 -0.99999899 0.00097751606 0.00097751606
0 3.7538199 86.623596 -0.99999899 0.00097751606 0.00097751606
0 32.497601 48.5811 -0.99999899 0.00097751606 0.00097751606
0 2.43205 45.425301 -0.99999899 0.00097751606 0.00097751606
0 20.878799 54.816399 -0.99999899 0.00097751606 0.00097751606
0 9.6448898 65.943398 -0.99999899 0.00097751606 0.00097751606
0 11.0483 42.307098 -0.99999899 0.00097751606 0.00097751606
0 0.94031399 69.440598 -0.99999899 0.00097751606 0.00097751606
0 28.480499 84.528801 -0.99999899 0.00097751606 0.00097751606
0 14.3664 57.4911 -0.99999899 0.00097751606 0.00097751606
0 25.6649 38.176399 -0.99999899 0.00097751606 0.00097751606
0 19.578899 83.880203 -0.99999899 0.00097751606 0.00097751606
0 46.436798 83.697304 -0.99999899 0.00097751606 0.00097751606
0 16.0536 65.487297 -0.99999899 0.00097751606 0.00097751606
0 7.7091198 38.351398 -0.99999899 0.00097751606 0.00097751606
0 25.4571 70.748703 -0.99999899 0.00097751606 0.00097751606
0 36.015701 79.490898 -0.99999899 0.00097751606 0.00097751606
0 35.585999 65.185898 -0.99999899 0.00097751606 0.00097751606
0 19.3542 30.980101 -0.99999899 0.00097751606 0.00097751606
0 3.3966999 15.3712 -0.99999899 0.00097751606 0.00097751606
0 15.3578 47.192699 -0.99999899 0.00097751606 0.00097751606
0 31.1008 68.291603 -0.99999899 0.00097751606 0.00097751606
0 22.8577 50.724201 -0.99999899 0.00097751606 0.00097751606
0 45.468899 85.064499 -0.99999899 0.00097751606 0.00097751606
0 11.4436 65.597 -0.99999899 0.00097751606 0.00097751606
0 41.520199 71.328903 -0.99999899 0.00097751606 0.00097751606
0 2.655 54.279999 -0.99999899 0.00097751606 0.00097751606
0 5.8185701 62.833599 -0.99999899 0.00097751606 0.00097751606
0 19.5716 83.033096 -0.99999899 0.00097751606 0.00097751606
0 36.404598 64.938599 -0.99999899 0.00097751606 0.00097751606
0 57.492901 87.743103 -0.99999899 0.00097751606 0.00097751606
0 27.7773 55.3964 -0.99999899 0.00097751606 0.00097751606
0 48.1427 91.421204 -0.99999899 0.00097751606 0.00097751606
0 17.9457 67.311401 -0.99999899 0.00097751606 0.00097751606
0 48.478298 80.384399 -0.99999899 0.00097751606 0.00097751606
0 6.53479 53.247501 -0.99999899 0.00097751606 0.00097751606
0 0.111043 67.619202 -0.99999899 0.00097751606 0.00097751606
0 24.084801 65.661903 -0.99999899 0.00097751606 0.00097751606
0 28.642401 52.761398 -0.99999899 0.00097751606 0.00097751606
0 20.658001 47.114799 -0.99999899 0.00097751606 0.00097751606
0 30.5781 87.005997 -0.99999899 0.00097751606 0.00097751606
0 1.22443 42.308102 -0.99999899 0.00097751606 0.00097751606
0 8.6120996 77.386299 -0.99999899 0.00097751606 0.00097751606
0 28.6577 56.458099 -0.99999899 0.00097751606 0.00097751606
0 0.261657 85.759003 -0.99999899 0.00097751606 0.00097751606
0 26.354601 66.935501 -0.99999899 0.00097751606 0.00097751606
0 12.8406 40.765598 -0.99999899 0.00097751606 0.00097751606
0 21.443001 36.691898 -0.99999899 0.00097751606 0.00097751606
0 40.184601 71.334396 -0.99999899 0.00097751606 0.00097751606
0 0.28053299 84.207497 -0.99999899 0.00097751606 0.00097751606
0 30.211 58.804001 -0.99999899 0.00097751606 0.00097751606
0 12.8494 48.065102 -0.99999899 0.00097751606 0.00097751606
0 44.6105 81.822304 -0.99999899 0.00097751606 0.00097751606
0 26.5145 77.294899 -0.99999899 0.00097751606 0.00097751606
0 31.2236 73.649498 -0.99999899 0.00097751606 0.00097751606
0 6.1475401 65.187302 -0.99999899 0.00097751606 0.00097751606
0 27.754999 84.016701 -0.99999899 0.00097751606 0.00097751606
0 32.047199 90.514297 -0.99999899 0.00097751606 0.00097751606
0 9.2982702 52.133202 -0.99999899 0.00097751606 0.00097751606
0 35.408798 70.041901 -0.99999899 0.00097751606 0.00097751606
0 7.4998798 43.9515 -0.99999899 0.00097751606 0.00097751606
0 59.4389 89.580597 -0.99999899 0.00097751606 0.00097751606
0 23.097401 91.407799 -0.99999899 0.00097751606 0.00097751606
0 39.910702 62.617298 -0.99999899 0.00097751606 0.00097751606
0 27.330601 44.613899 -0.99999899 0.00097751606 0.00097751606
0 0.47769901 6.2035999 -0.99999899 0.00097751606 0.00097751606
0 22.5417 43.120201 -0.99999899 0.00097751606 0.00097751606
0 30.3573 89.114799 -0.99999899 0.00097751606 0.00097751606
0 10.9562 30.979401 -0.99999899 0.00097751606 0.00097751606
0 13.5902 13.5432 -0.99999899 0.00097751606 0.00097751606
0 60.139198 44.9557 -0.99999899 0.00097751606 0.00097751606
0 17.3922 21.8001 -0.99999899 0.00097751606 0.00097751606
0 53.485699 0.317047 -0.99999899 0.00097751606 0.00097751606
0 25.9394 18.7348 -0.99999899 0.00097751606 0.00097751606
0 57.183601 74.117699 -0.99999899 0.00097751606 0.00097751606
0 29.286501 4.0255399 -0.99999899 0.00097751606 0.00097751606
0 56.9361 46.113098 -0.99999899 0.00097751606 0.00097751606
0 57.6054 26.5804 -0.99999899 0.00097751606 0.00097751606
0 50.788898 5.3084402 -0.99999899 0.00097751606 0.00097751606
0 47.1091 53.533001 -0.99999899 0.00097751606 0.00097751606
0 38.5135 54.954399 -0.99999899 0.00097751606 0.00097751606
0 38.199902 48.1577 -0.99999899 0.00097751606 0.00097751606
0 36.023602 44.562901 -0.99999899 0.00097751606 0.00097751606
0 42.466499 61.941399 -0.99999899 0.00097751606 0.00097751606
0 13.7001 16.1546 -0.99999899 0.00097751606 0.00097751606
0 42.924801 37.490002 -0.99999899 0.00097751606 0.00097751606
0 60.2118 18.2969 -0.99999899 0.00097751606 0.00097751606
0 25.496401 16.891001 -0.99999899 0.00097751606 0.00097751606
0 58.188301 77.2621 -0.99999899 0.00097751606 0.00097751606
0 24.362301 29.1418 -0.99999899 0.00097751606 0.00097751606
0 53.965199 41.5952 -0.99999899 0.00097751606 0.00097751606
0 55.364101 80.163498 -0.99999899 0.00097751606 0.00097751606
0 42.285801 62.695301 -0.99999899 0.00097751606 0.00097751606
0 40.550999 38.962799 -0.99999899 0.00097751606 0.00097751606
0 53.572102 8.77314 -0.99999899 0.00097751606 0.00097751606
0 38.276798 39.2645 -0.99999899 0.00097751606 0.00097751606
0 47.614101 36.266399 -0.99999899 0.00097751606 0.00097751606
0 36.807701 26.372101 -0.99999899 0.00097751606 0.00097751606
0 60.640598 51.938801 -0.99999899 0.00097751606 0.00097751606
0 12.3647 17.261101 -0.99999899 0.00097751606 0.00097751606
0 37.722 37.482101 -0.99999899 0.00097751606 0.00097751606
0 54.4757 72.214798 -0.99999899 0.00097751606 0.00097751606
0 51.661499 75.104103 -0.99999899 0.00097751606 0.00097751606
0 41.6292 28.285299 -0.99999899 0.00097751606 0.00097751606
0 57.8778 31.932301 -0.99999899 0.00097751606 0.00097751606
0 31.270399 3.17946 -0.99999899 0.00097751606 0.00097751606
0 53.375801 27.9461 -0.99999899 0.00097751606 0.00097751606
0 23.5648 13.8561 -0.99999899 0.00097751606 0.00097751606
0 47.121101 61.336498 -0.99999899 0.00097751606 0.00097751606
0 1.01881 1.35746 -0.99999899 0.00097751606 0.00097751606
0 28.031799 20.830999 -0.99999899 0.00097751606 0.00097751606
0 49.341599 23.972 -0.99999899 0.00097751606 0.00097751606
0 59.343498 46.7062 -0.99999899 0.00097751606 0.00097751606
0 32.824501 2.5375199 -0.99999899 0.00097751606 0.00097751606
0 49.321499 17.4646 -0.99999899 0.00097751606 0.00097751606
0 52.772202 72.283096 -0.99999899 0.00097751606 0.00097751606
0 45.331799 53.832298 -0.99999899 0.00097751606 0.00097751606
0 12.5901 13.3645 -0.99999899 0.00097751606 0.00097751606
0 60.625599 72.962402 -0.99999899 0.00097751606 0.00097751606
0 58.878899 20.1922 -0.99999899 0.00097751606 0.00097751606
0 60.4865 32.254299 -0.99999899 0.00097751606 0.00097751606
0 28.5359 34.144199 -0.99999899 0.00097751606 0.00097751606
0 57.023201 59.764198 -0.99999899 0.00097751606 0.00097751606
0 54.870098 26.716299 -0.99999899 0.00097751606 0.00097751606
0 6.0829201 1.16573 -0.99999899 0.00097751606 0.00097751606
0 49.011002 54.081799 -0.99999899 0.00097751606 0.00097751606
0 37.494202 19.726601 -0.99999899 0.00097751606 0.00097751606
0 60.7439 43.901001 -0.99999899 0.00097751606 0.00097751606
0 51.693401 2.8919899 -0.99999899 0.00097751606 0.00097751606
0 47.632 7.3021998 -0.99999899 0.00097751606 0.00097751606
0 61.6642 32.2556 -0.99999899 0.00097751606 0.00097751606
0 17.1185 20.9627 -0.99999899 0.00097751606 0.00097751606
0 10.8698 6.7182698 -0.99999899 0.00097751606 0.00097751606
0 14.3834 18.6045 -0.99999899 0.00097751606 0.00097751606
0 29.129299 19.2932 -0.99999899 0.00097751606 0.00097751606
0 55.883301 17.952999 -0.99999899 0.00097751606 0.00097751606
0 60.292198 41.9944 -0.99999899 0.00097751606 0.00097751606
0 36.980801 29.186001 -0.99999899 0.00097751606 0.00097751606
0 41.442902 51.037601 -0.99999899 0.00097751606 0.00097751606
0 31.933901 30.131701 -0.99999899 0.00097751606 0.00097751606
0 11.4329 9.8973703 -0.99999899 0.00097751606 0.00097751606
0 53.3862 67.464996 -0.99999899 0.00097751606 0.00097751606
0 49.264702 49.287601 -0.99999899 0.00097751606 0.00097751606
0 43.2673 7.3330998 -0.99999899 0.00097751606 0.00097751606
0 49.519402 23.4695 -0.99999899 0.00097751606 0.00097751606
0 50.951302 66.262001 -0.99999899 0.00097751606 0.00097751606
0 23.778299 18.0107 -0.99999899 0.00097751606 0.00097751606
0 35.231602 46.370602 -0.99999899 0.00097751606 0.00097751606
0 24.2197 26.8661 -0.99999899 0.00097751606 0.00097751606
0 61.585899 29.1008 -0.99999899 0.00097751606 0.00097751606
0 28.18 27.8507 -0.99999899 0.00097751606 0.00097751606
0 49.7743 38.6894 -0.99999899 0.00097751606 0.00097751606
0 54.331902 42.873299 -0.99999899 0.00097751606 0.00097751606
0 16.059401 17.472601 -0.99999899 0.00097751606 0.00097751606
0 34.843899 44.476002 -0.99999899 0.00097751606 0.00097751606
0 39.0667 11.928 -0.99999899 0.00097751606 0.00097751606
0 39.209 3.3108799 -0.99999899 0.00097751606 0.00097751606
0 46.416401 56.0826 -0.99999899 0.00097751606 0.00097751606
0 54.398399 34.526798 -0.99999899 0.00097751606 0.00097751606
0 34.683498 9.6459103 -0.99999899 0.00097751606 0.00097751606
0 18.785999 12.4518 -0.99999899 0.00097751606 0.00097751606
0 23.0019 27.5481 -0.99999899 0.00097751606 0.00097751606
0 59.760201 2.51071 -0.99999899 0.00097751606 0.00097751606
0 55.339298 77.223198 -0.99999899 0.00097751606 0.00097751606
0 60.9184 2.6649799 -0.99999899 0.00097751606 0.00097751606
0 40.1506 58.805099 -0.99999899 0.00097751606 0.00097751606
0 28.2631 16.419201 -0.99999899 0.00097751606 0.00097751606
0 53.278099 65.788696 -0.99999899 0.00097751606 0.00097751606
0 60.2173 17.622601 -0.99999899 0.00097751606 0.00097751606
0 32.840302 27.5313 -0.99999899 0.00097751606 0.00097751606
0 6.3776498 7.9996901 -0.99999899 0.00097751606 0.00097751606
0 26.020901 16.891199 -0.99999899 0.00097751606 0.00097751606
0 25.179701 18.805099 -0.99999899 0.00097751606 0.00097751606
0 47.710701 49.960999 -0.99999899 0.00097751606 0.00097751606
0 33.3386 33.729599 -0.99999899 0.00097751606 0.00097751606
0 46.7089 23.651899 -0.99999899 0.00097751606 0.00097751606
0 15.0735 13.626 -0.99999899 0.00097751606 0.00097751606
0 47.6749 48.0881 -0.99999899 0.00097751606 0.00097751606
0 20.9265 30.200199 -0.99999899 0.00097751606 0.00097751606
0 35.541401 1.41277 -0.99999899 0.00097751606 0.00097751606
0 33.4482 17.292801 -0.99999899 0.00097751606 0.00097751606
0 37.606899 17.2003 -0.99999899 0.00097751606 0.00097751606
0 29.951099 13.8141 -0.99999899 0.00097751606 0.00097751606
0 22.618799 8.0802402 -0.99999899 0.00097751606 0.00097751606
0 42.7784 36.477001 -0.99999899 0.00097751606 0.00097751606
0 45.159599 30.1849 -0.99999899 0.00097751606 0.00097751606
0 50.586498 25.498699 -0.99999899 0.00097751606 0.00097751606
0 47.479698 28.6054 -0.99999899 0.00097751606 0.00097751606
0 57.149601 18.4202 -0.99999899 0.00097751606 0.00097751606
0 33.539101 5.3255701 -0.99999899 0.00097751606 0.00097751606
0 29.108601 18.107599 -0.99999899 0.00097751606 0.00097751606
0 18.1665 6.5655699 -0.99999899 0.00097751606 0.00097751606
0 15.4663 4.57617 -0.99999899 0.00097751606 0.00097751606
0 58.232498 39.838402 -0.99999899 0.00097751606 0.00097751606
0 57.616501 74.358398 -0.99999899 0.00097751606 0.00097751606
0 43.377701 45.491798 -0.99999899 0.00097751606 0.00097751606
0 51.966801 26.3596 -0.99999899 0.00097751606 0.00097751606
0 41.235001 22.9394 -0.99999899 0.00097751606 0.00097751606
0 44.809101 41.783798 -0.99999899 0.00097751606 0.00097751606
0 15.6116 15.4484 -0.99999899 0.00097751606 0.00097751606
0 55.381199 60.940601 -0.99999899 0.00097751606 0.00097751606
0 57.3092 71.632401 -0.99999899 0.00097751606 0.00097751606
0 29.967501 36.597 -0.99999899 0.00097751606 0.00097751606
0 33.393299 10.47 -0.99999899 0.00097751606 0.00097751606
0 39.2393 16.7584 -0.99999899 0.00097751606 0.00097751606
0 5.32266 5.5742302 -0.99999899 0.00097751606 0.00097751606
0 43.493401 43.2747 -0.99999899 0.00097751606 0.00097751606
0 46.8367 3.6658101 -0.99999899 0.00097751606 0.00097751606
0 37.3032 55.076099 -0.99999899 0.00097751606 0.00097751606
0 37.8493 51.265202 -0.99999899 0.00097751606 0.00097751606
0 40.829102 44.405102 -0.99999899 0.00097751606 0.00097751606
0 34.412998 36.393501 -0.99999899 0.00097751606 0.00097751606
0 34.3596 15.5101 -0.99999899 0.00097751606 0.00097751606
0 48.445301 15.4021 -0.99999899 0.00097751606 0.00097751606
0 17.3876 15.1499 -0.99999899 0.00097751606 0.00097751606
0 38.6595 37.041698 -0.99999899 0.00097751606 0.00097751606
0 44.433498 50.510502 -0.99999899 0.00097751606 0.00097751606
0 39.5317 23.6402 -0.99999899 0.00097751606 0.00097751606
0 12.5958 18.311199 -0.99999899 0.00097751606 0.00097751606
0 32.730202 4.8416901 -0.99999899 0.00097751606 0.00097751606
0 40.526798 8.1936598 -0.99999899 0.00097751606 0.00097751606
0 58.8106 52.9002 -0.99999899 0.00097751606 0.00097751606
0 56.286499 53.5126 -0.99999899 0.00097751606 0.00097751606
0 59.590698 63.052898 -0.99999899 0.00097751606 0.00097751606
0 50.379501 39.5228 -0.99999899 0.00097751606 0.00097751606
0 31.622499 42.075699 -0.99999899 0.00097751606 0.00097751606
0 19.443001 21.959299 -0.99999899 0.00097751606 0.00097751606
0 41.5644 24.941099 -0.99999899 0.00097751606 0.00097751606
0 18.628 19.7404 -0.99999899 0.00097751606 0.00097751606
0 26.002701 37.671001 -0.99999899 0.00097751606 0.00097751606
0 14.1955 12.8934 -0.99999899 0.00097751606 0.00097751606
0 61.625401 37.408501 -0.99999899 0.00097751606 0.00097751606
0 27.1208 28.292 -0.99999899 0.00097751606 0.00097751606
0 39.505798 15.2891 -0.99999899 0.00097751606 0.00097751606
0 60.023399 45.710701 -0.99999899 0.00097751606 0.00097751606
0 16.9636 21.0196 -0.99999899 0.00097751606 0.00097751606
0 59.902802 62.151299 -0.99999899 0.00097751606 0.00097751606
0 10.3679 9.9108601 -0.99999899 0.00097751606 0.00097751606
0 48.4977 70.276604 -0.99999899 0.00097751606 0.00097751606
0 56.888802 83.115898 -0.99999899 0.00097751606 0.00097751606
0 42.1129 14.7227 -0.99999899 0.00097751606 0.00097751606
0 45.583 34.373402 -0.99999899 0.00097751606 0.00097751606
0 28.110901 17.844299 -0.99999899 0.00097751606 0.00097751606
0 22.547899 29.320299 -0.99999899 0.00097751606 0.00097751606
0 40.865799 26.1357 -0.99999899 0.00097751606 0.00097751606
0 20.9168 16.0371 -0.99999899 0.00097751606 0.00097751606
0 38.213902 55.299999 -0.99999899 0.00097751606 0.00097751606
0 60.5835 46.0914 -0.99999899 0.00097751606 0.00097751606
0 31.84 39.549999 -0.99999899 0.00097751606 0.00097751606
0 30.643999 20.718901 -0.99999899 0.00097751606 0.00097751606
0 19.8295 4.4152598 -0.99999899 0.00097751606 0.00097751606
0 33.477402 49.616901 -0.99999899 0.00097751606 0.00097751606
0 35.700901 27.1793 -0.99999899 0.00097751606 0.00097751606
0 51.902901 45.176201 -0.99999899 0.00097751606 0.00097751606
0 49.077999 48.2253 -0.99999899 0.00097751606 0.00097751606
0 52.745701 1.44393 -0.99999899 0.00097751606 0.00097751606
0 61.501202 39.056599 -0.99999899 0.00097751606 0.00097751606
0 36.6833 17.2155 -0.99999899 0.00097751606 0.00097751606
0 32.396099 14.0144 -0.99999899 0.00097751606 0.00097751606
0 28.2062 13.9639 -0.99999899 0.00097751606 0.00097751606
0 52.148998 74.539902 -0.99999899 0.00097751606 0.00097751606
0 34.941601 22.387199 -0.99999899 0.00097751606 0.00097751606
0 45.974201 50.472099 -0.99999899 0.00097751606 0.00097751606
0 4.1715498 4.1469202 -0.99999899 0.00097751606 0.00097751606
0 23.2229 30.384199 -0.99999899 0.00097751606 0.00097751606
0 34.953602 34.332401 -0.99999899 0.00097751606 0.00097751606
0 45.534401 16.805401 -0.99999899 0.00097751606 0.00097751606
0 44.771702 64.116997 -0.99999899 0.00097751606 0.00097751606
0 19.4797 15.5236 -0.99999899 0.00097751606 0.00097751606
0 30.365601 0.295798 -0.99999899 0.00097751606 0.00097751606
0 46.701302 0.268666 -0.99999899 0.00097751606 0.00097751606
0 31.6283 28.409401 -0.99999899 0.00097751606 0.00097751606
0 22.677601 27.9305 -0.99999899 0.00097751606 0.00097751606
0 61.522999 84.592903 -0.99999899 0.00097751606 0.00097751606
0 33.801701 37.794701 -0.99999899 0.00097751606 0.00097751606
0 33.485199 2.67557 -0.99999899 0.00097751606 0.00097751606
0 40.006599 42.542 -0.99999899 0.00097751606 0.00097751606
0 47.725201 2.6443501 -0.99999899 0.00097751606 0.00097751606
0 49.375599 21.5158 -0.99999899 0.00097751606 0.00097751606
0 52.764801 43.869701 -0.99999899 0.00097751606 0.00097751606
0 58.136299 0.424101 -0.99999899 0.00097751606 0.00097751606
0 25.916599 21.348499 -0.99999899 0.00097751606 0.00097751606
0 41.186401 24.893 -0.99999899 0.00097751606 0.00097751606
0 59.142899 62.809898 -0.99999899 0.00097751606 0.00097751606
0 43.750702 44.349098 -0.99999899 0.00097751606 0.00097751606
0 57.763599 80.324898 -0.99999899 0.00097751606 0.00097751606
0 30.087 24.8197 -0.99999899 0.00097751606 0.00097751606
0 45.726398 5.8685699 -0.99999899 0.00097751606 0.00097751606
0 50.841999 73.7332 -0.99999899 0.00097751606 0.00097751606
0 7.09758 6.2425399 -0.99999899 0.00097751606 0.00097751606
0 4.0847402 2.41889 -0.99999899 0.00097751606 0.00097751606
0 8.6857004 1.6795 -0.99999899 0.00097751606 0.00097751606
0 34.535599 4.3318 -0.99999899 0.00097751606 0.00097751606
0 44.171799 39.8694 -0.99999899 0.00097751606 0.00097751606
0 55.550598 79.140404 -0.99999899 0.00097751606 0.00097751606
0 33.0452 23.1674 -0.99999899 0.00097751606 0.00097751606
0 8.5212803 12.2231 -0.99999899 0.00097751606 0.00097751606
0 56.075699 70.183403 -0.99999899 0.00097751606 0.00097751606
0 54.156898 28.414101 -0.99999899 0.00097751606 0.00097751606
0 46.409599 60.953899 -0.99999899 0.00097751606 0.00097751606
0 52.941799 61.062 -0.99999899 0.00097751606 0.00097751606
0 60.944901 26.048201 -0.99999899 0.00097751606 0.00097751606
0 49.672501 57.071602 -0.99999899 0.00097751606 0.00097751606
0 21.6182 23.109301 -0.99999899 0.00097751606 0.00097751606
0 35.7799 3.37375 -0.99999899 0.00097751606 0.00097751606
0 48.3106 17.831499 -0.99999899 0.00097751606 0.00097751606
0 49.289001 47.821899 -0.99999899 0.00097751606 0.00097751606
0 58.871201 76.3498 -0.99999899 0.00097751606 0.00097751606
0 35.450699 3.91308 -0.99999899 0.00097751606 0.00097751606
0 51.834301 14.5843 -0.99999899 0.00097751606 0.00097751606
0 29.313801 21.4877 -0.99999899 0.00097751606 0.00097751606
0 61.4632 29.6938 -0.99999899 0.00097751606 0.00097751606
0 41.972801 42.245499 -0.99999899 0.00097751606 0.00097751606
0 48.307098 47.390701 -0.99999899 0.00097751606 0.00097751606
0 40.924099 2.70228 -0.99999899 0.00097751606 0.00097751606
0 53.796501 64.448601 -0.99999899 0.00097751606 0.00097751606
0 38.009499 22.852301 -0.99999899 0.00097751606 0.00097751606
0 19.223801 21.579599 -0.99999899 0.00097751606 0.00097751606
0 33.405998 10.1051 -0.99999899 0.00097751606 0.00097751606
0 36.295399 23.8885 -0.99999899 0.00097751606 0.00097751606
0 22.0497 11.0942 -0.99999899 0.00097751606 0.00097751606
0 46.507099 44.923901 -0.99999899 0.00097751606 0.00097751606
0 60.989201 41.153801 -0.99999899 0.00097751606 0.00097751606
0 32.2579 22.881901 -0.99999899 0.00097751606 0.00097751606
0 56.964001 26.2703 -0.99999899 0.00097751606 0.00097751606
0 53.091499 10.2918 -0.99999899 0.00097751606 0.00097751606
0 48.348801 24.1959 -0.99999899 0.00097751606 0.00097751606
0 45.273399 37.544102 -0.99999899 0.00097751606 0.00097751606
0 32.711601 30.550301 -0.99999899 0.00097751606 0.00097751606
0 38.431599 1.6124001 -0.99999899 0.00097751606 0.00097751606
0 29.780899 33.764 -0.99999899 0.00097751606 0.00097751606
0 45.5322 18.273701 -0.99999899 0.00097751606 0.00097751606
0 49.896099 31.819599 -0.99999899 0.00097751606 0.00097751606
0 57.3713 44.178501 -0.99999899 0.00097751606 0.00097751606
0 13.9349 5.8173499 -0.99999899 0.00097751606 0.00097751606
0 46.341702 15.261 -0.99999899 0.00097751606 0.00097751606
0 50.215199 42.166698 -0.99999899 0.00097751606 0.00097751606
0 13.4683 15.1352 -0.99999899 0.00097751606 0.00097751606
0 56.644299 68.094398 -0.99999899 0.00097751606 0.00097751606
0 26.8078 37.352299 -0.99999899 0.00097751606 0.00097751606
0 44.811401 32.1689 -0.99999899 0.00097751606 0.00097751606
0 33.206501 8.1735001 -0.99999899 0.00097751606 0.00097751606
0 60.383301 55.434601 -0.99999899 0.00097751606 0.00097751606
0 61.148899 36.1045 -0.99999899 0.00097751606 0.00097751606
0 31.3069 8.9086704 -0.99999899 0.00097751606 0.00097751606
0 52.513199 65.619499 -0.99999899 0.00097751606 0.00097751606
0 47.529499 30.9133 -0.99999899 0.00097751606 0.00097751606
0 44.011501 51.018299 -0.99999899 0.00097751606 0.00097751606
0 35.3923 10.1406 -0.99999899 0.00097751606 0.00097751606
0 54.257301 62.0243 -0.99999899 0.00097751606 0.00097751606
0 16.6077 6.8954101 -0.99999899 0.00097751606 0.00097751606
0 60.858299 12.8618 -0.99999899 0.00097751606 0.00097751606
0 57.115601 54.090302 -0.99999899 0.00097751606 0.00097751606
0 51.981998 25.1042 -0.99999899 0.00097751606 0.00097751606
0 29.356001 6.2683101 -0.99999899 0.00097751606 0.00097751606
0 25.0362 17.059099 -0.99999899 0.00097751606 0.00097751606
0 53.854099 67.293297 -0.99999899 0.00097751606 0.00097751606
0 58.899601 55.5065 -0.99999899 0.00097751606 0.00097751606
0 57.8339 46.757401 -0.99999899 0.00097751606 0.00097751606
0 30.8967 27.57 -0.99999899 0.00097751606 0.00097751606
0 28.6539 10.4878 -0.99999899 0.00097751606 0.00097751606
0 44.131599 53.348301 -0.99999899 0.00097751606 0.00097751606
0 32.021702 19.5574 -0.99999899 0.00097751606 0.00097751606
0 16.708099 5.7411299 -0.99999899 0.00097751606 0.00097751606
0 4.5928898 4.5534902 -0.99999899 0.00097751606 0.00097751606
0 57.420898 34.2714 -0.99999899 0.00097751606 0.00097751606
0 16.003599 0.51511002 -0.99999899 0.00097751606 0.00097751606
0 29.382099 17.060801 -0.99999899 0.00097751606 0.00097751606
0 61.621799 84.135803 -0.99999899 0.00097751606 0.00097751606
0 40.844002 5.3120699 -0.99999899 0.00097751606 0.00097751606
0 53.201302 45.8564 -0.99999899 0.00097751606 0.00097751606
0 45.790298 56.1343 -0.99999899 0.00097751606 0.00097751606
0 37.663601 45.366901 -0.99999899 0.00097751606 0.00097751606
0 37.0177 53.9333 -0.99999899 0.00097751606 0.00097751606
0 26.5268 20.5648 -0.99999899 0.00097751606 0.00097751606
0 42.601799 41.3274 -0.99999899 0.00097751606 0.00097751606
0 54.960899 38.121799 -0.99999899 0.00097751606 0.00097751606
0 33.0392 42.637901 -0.99999899 0.00097751606 0.00097751606
0 61.91 40.439201 -0.99999899 0.00097751606 0.00097751606
0 13.8855 6.78512 -0.99999899 0.00097751606 0.00097751606
0 15.6975 1.91789 -0.99999899 0.00097751606 0.00097751606
0 54.580898 45.722401 -0.99999899 0.00097751606 0.00097751606
0 50.569199 44.9688 -0.99999899 0.00097751606 0.00097751606
0 6.0167599 2.1419001 -0.99999899 0.00097751606 0.00097751606
0 53.532501 52.4268 -0.99999899 0.00097751606 0.00097751606
0 60.972 43.286701 -0.99999899 0.00097751606 0.00097751606
0 44.035702 18.313601 -0.99999899 0.00097751606 0.00097751606
0 46.629002 66.3666 -0.99999899 0.00097751606 0.00097751606
0 50.752899 65.347801 -0.99999899 0.00097751606 0.00097751606
0 48.2929 59.248501 -0.99999899 0.00097751606 0.00097751606
0 16.7446 10.522 -0.99999899 0.00097751606 0.00097751606
0 53.085999 10.5306 -0.99999899 0.00097751606 0.00097751606
0 60.7463 43.775398 -0.99999899 0.00097751606 0.00097751606
0 60.835499 70.785797 -0.99999899 0.00097751606 0.00097751606
0 22.781 26.6341 -0.99999899 0.00097751606 0.00097751606
0 27.2682 24.1553 -0.99999899 0.00097751606 0.00097751606
0 19.2314 6.1144199 -0.99999899 0.00097751606 0.00097751606
0 38.379002 8.8705101 -0.99999899 0.00097751606 0.00097751606
0 5.8758101 2.7878799 -0.99999899 0.00097751606 0.00097751606
0 60.2402 11.8827 -0.99999899 0.00097751606 0.00097751606
0 59.392399 77.218102 -0.99999899 0.00097751606 0.00097751606
0 22.300301 0.29750901 -0.99999899 0.00097751606 0.00097751606
0 40.575001 44.908401 -0.99999899 0.00097751606 0.00097751606
0 42.145 51.609001 -0.99999899 0.00097751606 0.00097751606
0 44.6222 59.715801 -0.99999899 0.00097751606 0.00097751606
0 39.615398 22.8685 -0.99999899 0.00097751606 0.00097751606
0 27.306999 15.0862 -0.99999899 0.00097751606 0.00097751606
0 57.128399 37.9664 -0.99999899 0.00097751606 0.00097751606
0 47.291 34.458801 -0.99999899 0.00097751606 0.00097751606
0 26.4543 8.2271004 -0.99999899 0.00097751606 0.00097751606
0 40.219002 36.664001 -0.99999899 0.00097751606 0.00097751606
0 35.147499 16.797701 -0.99999899 0.00097751606 0.00097751606
0 47.3097 46.155899 -0.99999899 0.00097751606 0.00097751606
0 41.423801 46.050598 -0.99999899 0.00097751606 0.00097751606
0 36.123001 31.748501 -0.99999899 0.00097751606 0.00097751606
0 10.6665 4.05759 -0.99999899 0.00097751606 0.00097751606
0 12.6507 1.77036 -0.99999899 0.00097751606 0.00097751606
0 53.3041 31.9725 -0.99999899 0.00097751606 0.00097751606
0 44.053501 43.311199 -0.99999899 0.00097751606 0.00097751606
0 57.173302 84.4674 -0.99999899 0.00097751606 0.00097751606
0 52.181198 22.6889 -0.99999899 0.00097751606 0.00097751606
0 39.0732 28.6458 -0.99999899 0.00097751606 0.00097751606
0 45.902 27.7782 -0.99999899 0.00097751606 0.00097751606
0 33.8396 38.544899 -0.99999899 0.00097751606 0.00097751606
0 37.6647 35.109699 -0.99999899 0.00097751606 0.00097751606
0 34.651798 46.841599 -0.99999899 0.00097751606 0.00097751606
0 43.445301 49.913399 -0.99999899 0.00097751606 0.00097751606
0 35.619499 23.375299 -0.99999899 0.00097751606 0.00097751606
0 41.7258 51.7677 -0.99999899 0.00097751606 0.00097751606
0 61.5191 13.4275 -0.99999899 0.00097751606 0.00097751606
0 56.695202 34.828701 -0.99999899 0.00097751606 0.00097751606
0 16.678101 20.9044 -0.99999899 0.00097751606 0.00097751606
0 37.669201 52.7089 -0.99999899 0.00097751606 0.00097751606
0 13.5416 1.79159 -0.99999899 0.00097751606 0.00097751606
0 35.590698 32.007 -0.99999899 0.00097751606 0.00097751606
0 54.351101 76.066597 -0.99999899 0.00097751606 0.00097751606
0 28.2169 28.4231 -0.99999899 0.00097751606 0.00097751606
0 33.5382 3.9021101 -0.99999899 0.00097751606 0.00097751606
0 33.316399 47.828701 -0.99999899 0.00097751606 0.00097751606
0 27.9077 39.817699 -0.99999899 0.00097751606 0.00097751606
0 34.539902 2.53896 -0.99999899 0.00097751606 0.00097751606
0 33.870399 38.663799 -0.99999899 0.00097751606 0.00097751606
0 36.328999 10.6618 -0.99999899 0.00097751606 0.00097751606
0 37.223202 41.6036 -0.99999899 0.00097751606 0.00097751606
0 61.904301 55.8577 -0.99999899 0.00097751606 0.00097751606
0 56.789501 5.4891 -0.99999899 0.00097751606 0.00097751606
0 31.6462 1.3395801 -0.99999899 0.00097751606 0.00097751606
0 41.073898 16.161301 -0.99999899 0.00097751606 0.00097751606
0 11.077 3.96171 -0.99999899 0.00097751606 0.00097751606
0 40.862499 43.269199 -0.99999899 0.00097751606 0.00097751606
0 15.7063 1.1502399 -0.99999899 0.00097751606 0.00097751606
0 45.226799 31.889099 -0.99999899 0.00097751606 0.00097751606
0 45.769299 37.101398 -0.99999899 0.00097751606 0.00097751606
0 36.1026 44.4314 -0.99999899 0.00097751606 0.00097751606
0 30.2701 5.3498602 -0.99999899 0.00097751606 0.00097751606
0 56.681599 56.9114 -0.99999899 0.00097751606 0.00097751606
0 58.7813 34.361599 -0.99999899 0.00097751606 0.00097751606
0 43.3372 11.7824 -0.99999899 0.00097751606 0.00097751606
0 48.227299 66.489304 -0.99999899 0.00097751606 0.00097751606
0 27.9247 13.977 -0.99999899 0.00097751606 0.00097751606
0 44.3867 25.106899 -0.99999899 0.00097751606 0.00097751606
0 50.8671 45.075298 -0.99999899 0.00097751606 0.00097751606
0 7.7870798 1.7220401 -0.99999899 0.00097751606 0.00097751606
0 50.785 68.202904 -0.99999899 0.00097751606 0.00097751606
0 39.887699 1.63283 -0.99999899 0.00097751606 0.00097751606
0 57.713402 85.425301 -0.99999899 0.00097751606 0.00097751606
0 42.627399 52.230598 -0.99999899 0.00097751606 0.00097751606
0 36.674198 9.2690897 -0.99999899 0.00097751606 0.00097751606
0 56.827099 82.677498 -0.99999899 0.00097751606 0.00097751606
0 20.1294 1.59196 -0.99999899 0.00097751606 0.00097751606
0 49.5009 51.9809 -0.99999899 0.00097751606 0.00097751606
0 32.7099 31.7789 -0.99999899 0.00097751606 0.00097751606
0 38.126499 15.444 -0.99999899 0.00097751606 0.00097751606
0 36.116699 45.4515 -0.99999899 0.00097751606 0.00097751606
0 57.716202 85.048203 -0.99999899 0.00097751606 0.00097751606
0 45.724998 29.674601 -0.99999899 0.00097751606 0.00097751606
0 42.889099 63.188202 -0.99999899 0.00097751606 0.00097751606
0 55.782799 28.2763 -0.99999899 0.00097751606 0.00097751606
0 57.090199 80.926697 -0.99999899 0.00097751606 0.00097751606
0 50.2425 31.298401 -0.99999899 0.00097751606 0.00097751606
0 35.4142 13.5645 -0.99999899 0.00097751606 0.00097751606
0 48.611301 50.956402 -0.99999899 0.00097751606 0.00097751606
0 27.4251 14.2089 -0.99999899 0.00097751606 0.00097751606
0 45.243301 42.878399 -0.99999899 0.00097751606 0.00097751606
0 53.521 11.3208 -0.99999899 0.00097751606 0.00097751606
0 49.983799 0.739016 -0.99999899 0.00097751606 0.00097751606
0 38.0504 39.569599 -0.99999899 0.00097751606 0.00097751606
0 11.1364 8.4888096 -0.99999899 0.00097751606 0.00097751606
0 46.5737 67.426598 -0.99999899 0.00097751606 0.00097751606
0 19.2857 17.776501 -0.99999899 0.00097751606 0.00097751606
0 59.707901 13.8727 -0.99999899 0.00097751606 0.00097751606
0 12.2229 2.4626701 -0.99999899 0.00097751606 0.00097751606
0 40.423599 16.218 -0.99999899 0.00097751606 0.00097751606
0 61.720901 53.254501 -0.99999899 0.00097751606 0.00097751606
0 49.862701 43.441299 -0.99999899 0.00097751606 0.00097751606
0 30.1555 44.0117 -0.99999899 0.00097751606 0.00097751606
0 30.067101 43.0546 -0.99999899 0.00097751606 0.00097751606
0 43.82 64.860901 -0.99999899 0.00097751606 0.00097751606
0 60.5359 34.2272 -0.99999899 0.00097751606 0.00097751606
0 36.6381 20.2663 -0.99999899 0.00097751606 0.00097751606
0 18.408701 16.952299 -0.99999899 0.00097751606 0.00097751606
0 42.762299 34.247501 -0.99999899 0.00097751606 0.00097751606
0 42.339901 54.0965 -0.99999899 0.00097751606 0.00097751606
0 51.578701 73.719101 -0.99999899 0.00097751606 0.00097751606
0 21.8444 9.1985998 -0.99999899 0.00097751606 0.00097751606
0 32.6348 14.0625 -0.99999899 0.00097751606 0.00097751606
0 47.305401 32.667099 -0.99999899 0.00097751606 0.00097751606
0 53.077301 47.8265 -0.99999899 0.00097751606 0.00097751606
0 48.408501 22.397699 -0.99999899 0.00097751606 0.00097751606
0 36.9473 24.24 -0.99999899 0.00097751606 0.00097751606
0 48.382 42.661301 -0.99999899 0.00097751606 0.00097751606
0 44.5354 5.2095399 -0.99999899 0.00097751606 0.00097751606
0 51.607201 21.135201 -0.99999899 0.00097751606 0.00097751606
0 41.2271 56.653 -0.99999899 0.00097751606 0.00097751606
0 49.098202 58.323399 -0.99999899 0.00097751606 0.00097751606
0 18.387199 23.243099 -0.99999899 0.00097751606 0.00097751606
0 47.097801 12.6807 -0.99999899 0.00097751606 0.00097751606
0 57.710201 67.776398 -0.99999899 0.00097751606 0.00097751606
0 56.709499 64.341797 -0.99999899 0.00097751606 0.00097751606
0 55.386002 63.794399 -0.99999899 0.00097751606 0.00097751606
0 8.7390804 5.9496799 -0.99999899 0.00097751606 0.00097751606
0 26.417999 3.5818701 -0.99999899 0.00097751606 0.00097751606
0 17.9251 20.0968 -0.99999899 0.00097751606 0.00097751606
0 46.4795 44.870499 -0.99999899 0.00097751606 0.00097751606
0 19.049999 6.5285301 -0.99999899 0.00097751606 0.00097751606
0 31.9039 23.7458 -0.99999899 0.00097751606 0.00097751606
0 57.747398 17.2903 -0.99999899 0.00097751606 0.00097751606
0 60.2873 55.6339 -0.99999899 0.00097751606 0.00097751606
0 58.631001 13.6746 -0.99999899 0.00097751606 0.00097751606
0 35.3279 3.3908899 -0.99999899 0.00097751606 0.00097751606
0 44.613098 25.2248 -0.99999899 0.00097751606 0.00097751606
0 45.220299 59.4688 -0.99999899 0.00097751606 0.00097751606
0 50.0229 1.48083 -0.99999899 0.00097751606 0.00097751606
0 48.4161 32.426701 -0.99999899 0.00097751606 0.00097751606
0 61.620998 52.481098 -0.99999899 0.00097751606 0.00097751606
0 26.1619 16.861601 -0.99999899 0.00097751606 0.00097751606
0 28.693501 16.6541 -0.99999899 0.00097751606 0.00097751606
0 28.5179 17.439899 -0.99999899 0.00097751606 0.00097751606
0 17.930401 20.9547 -0.99999899 0.00097751606 0.00097751606
0 61.304798 80.306702 -0.99999899 0.00097751606 0.00097751606
0 53.598999 50.5821 -0.99999899 0.00097751606 0.00097751606
0 40.399799 7.0452399 -0.99999899 0.00097751606 0.00097751606
0 29.686899 1.75972 -0.99999899 0.00097751606 0.00097751606
0 44.5135 34.938801 -0.99999899 0.00097751606 0.00097751606
0 33.1581 37.4366 -0.99999899 0.00097751606 0.00097751606
0 36.630501 20.524099 -0.99999899 0.00097751606 0.00097751606
0 56.201 55.165298 -0.99999899 0.00097751606 0.00097751606
0 45.190899 12.198 -0.99999899 0.00097751606 0.00097751606
0 59.8438 22.3874 -0.99999899 0.00097751606 0.00097751606
0 50.797298 48.304298 -0.99999899 0.00097751606 0.00097751606
0 1.8633699 2.02791 -0.99999899 0.00097751606 0.00097751606
0 14.8695 12.7567 -0.99999899 0.00097751606 0.00097751606
0 47.238701 18.658001 -0.99999899 0.00097751606 0.00097751606
0 6.9195199 5.3283401 -0.99999899 0.00097751606 0.00097751606
0 39.4547 51.704899 -0.99999899 0.00097751606 0.00097751606
0 16.987801 14.4113 -0.99999899 0.00097751606 0.00097751606
0 53.4655 25.7684 -0.99999899 0.00097751606 0.00097751606
0 44.232101 57.0476 -0.99999899 0.00097751606 0.00097751606
0 61.321602 21.164101 -0.99999899 0.00097751606 0.00097751606
0 14.028 4.5290899 -0.99999899 0.00097751606 0.00097751606
0 29.473 34.604099 -0.99999899 0.00097751606 0.00097751606
0 4.60567 3.9500501 -0.99999899 0.00097751606 0.00097751606
0 56.061199 2.0616901 -0.99999899 0.00097751606 0.00097751606
0 61.129002 22.4746 -0.99999899 0.00097751606 0.00097751606
0 59.098499 35.1861 -0.99999899 0.00097751606 0.00097751606
0 24.556101 21.113199 -0.99999899 0.00097751606 0.00097751606
0 57.484402 27.514099 -0.99999899 0.00097751606 0.00097751606
0 32.018299 7.4632401 -0.99999899 0.00097751606 0.00097751606
0 51.138302 26.638901 -0.99999899 0.00097751606 0.00097751606
0 51.906399 55.008701 -0.99999899 0.00097751606 0.00097751606
0 43.934898 31.773899 -0.99999899 0.00097751606 0.00097751606
0 50.074699 62.327099 -0.99999899 0.00097751606 0.00097751606
84.574501 0 49.3601 0.00097751606 -0.99999899 0.00097751606
100.547 0 84.308701 0.00097751606 -0.99999899 0.00097751606
106.364 0 34.820702 0.00097751606 -0.99999899 0.00097751606
144.849 0 14.3816 0.00097751606 -0.99999899 0.00097751606
4.8031001 0 89.475403 0.00097751606 -0.99999899 0.00097751606
142.467 0 28.037201 0.00097751606 -0.99999899 0.00097751606
26.337601 0 90.819504 0.00097751606 -0.99999899 0.00097751606
26.421499 0 88.808899 0.00097751606 -0.99999899 0.00097751606
113.848 0 45.567799 0.00097751606 -0.99999899 0.00097751606
129.47 0 72.179497 0.00097751606 -0.99999899 0.00097751606
65.236504 0 89.326103 0.00097751606 -0.99999899 0.00097751606
110.561 0 29.670099 0.00097751606 -0.99999899 0.00097751606
90.168404 0 87.073097 0.00097751606 -0.99999899 0.00097751606
12.723 0 91.168297 0.00097751606 -0.99999899 0.00097751606
92.673203 0 63.353401 0.00097751606 -0.99999899 0.00097751606
130.05499 0 18.8295 0.00097751606 -0.99999899 0.00097751606
141.304 0 19.9452 0.00097751606 -0.99999899 0.00097751606
129.879 0 47.204899 0.00097751606 -0.99999899 0.00097751606
39.250198 0 76.851196 0.00097751606 -0.99999899 0.00097751606
109.697 0 82.2369 0.00097751606 -0.99999899 0.00097751606
129.47099 0 54.510601 0.00097751606 -0.99999899 0.00097751606
55.146301 0 58.767601 0.00097751606 -0.99999899 0.00097751606
132.464 0 76.947899 0.00097751606 -0.99999899 0.00097751606
48.6021 0 82.486 0.00097751606 -0.99999899 0.00097751606
61.0061 0 58.766201 0.00097751606 -0.99999899 0.00097751606
124.438 0 64.285797 0.00097751606 -0.99999899 0.00097751606
84.244598 0 58.0952 0.00097751606 -0.99999899 0.00097751606
82.813004 0 84.937897 0.00097751606 -0.99999899 0.00097751606
106.115 0 41.2178 0.00097751606 -0.99999899 0.00097751606
145.66499 0 36.6064 0.00097751606 -0.99999899 0.00097751606
93.448502 0 34.149799 0.00097751606 -0.99999899 0.00097751606
47.242901 0 72.799797 0.00097751606 -0.99999899 0.00097751606
98.579903 0 78.443298 0.00097751606 -0.99999899 0.00097751606
48.207802 0 66.455704 0.00097751606 -0.99999899 0.00097751606
54.3713 0 91.410301 0.00097751606 -0.99999899 0.00097751606
130.55901 0 77.303398 0.00097751606 -0.99999899 0.00097751606
55.1101 0 63.376499 0.00097751606 -0.99999899 0.00097751606
40.0317 0 83.667702 0.00097751606 -0.99999899 0.00097751606
106.464 0 33.1408 0.00097751606 -0.99999899 0.00097751606
115.001 0 36.5168 0.00097751606 -0.99999899 0.00097751606
117.696 0 38.547298 0.00097751606 -0.99999899 0.00097751606
58.333199 0 65.295601 0.00097751606 -0.99999899 0.00097751606
135.22501 0 78.794098 0.00097751606 -0.99999899 0.00097751606
123.988 0 31.945801 0.00097751606 -0.99999899 0.00097751606
135.086 0 29.573601 0.00097751606 -0.99999899 0.00097751606
68.355598 0 53.317501 0.00097751606 -0.99999899 0.00097751606
129.496 0 56.534599 0.00097751606 -0.99999899 0.00097751606
91.3498 0 38.850201 0.00097751606 -0.99999899 0.00097751606
133.985 0 66.045998 0.00097751606 -0.99999899 0.00097751606
83.096298 0 91.132797 0.00097751606 -0.99999899 0.00097751606
78.831497 0 76.694 0.00097751606 -0.99999899 0.00097751606
41.9958 0 79.089203 0.00097751606 -0.99999899 0.00097751606
126.225 0 37.096401 0.00097751606 -0.99999899 0.00097751606
144.341 0 44.2215 0.00097751606 -0.99999899 0.00097751606
67.115501 0 56.7019 0.00097751606 -0.99999899 0.00097751606
22.3232 0 78.059998 0.00097751606 -0.99999899 0.00097751606
69.682999 0 81.024399 0.00097751606 -0.99999899 0.00097751606
68.479103 0 53.388901 0.00097751606 -0.99999899 0.00097751606
95.7173 0 86.929703 0.00097751606 -0.99999899 0.00097751606
140.94501 0 14.8859 0.00097751606 -0.99999899 0.00097751606
102.639 0 81.318901 0.00097751606 -0.99999899 0.00097751606
109.759 0 63.098598 0.00097751606 -0.99999899 0.00097751606
111.136 0 29.474001 0.00097751606 -0.99999899 0.00097751606
109.458 0 53.919601 0.00097751606 -0.99999899 0.00097751606
143.468 0 24.2994 0.00097751606 -0.99999899 0.00097751606
23.527599 0 91.711197 0.00097751606 -0.99999899 0.00097751606
60.256401 0 79.203697 0.00097751606 -0.99999899 0.00097751606
130.91901 0 13.2914 0.00097751606 -0.99999899 0.00097751606
120.295 0 64.742104 0.00097751606 -0.99999899 0.00097751606
125.554 0 51.939201 0.00097751606 -0.99999899 0.00097751606
29.527901 0 86.740196 0.00097751606 -0.99999899 0.00097751606
17.4604 0 84.915398 0.00097751606 -0.99999899 0.00097751606
48.5462 0 75.879303 0.00097751606 -0.99999899 0.00097751606
130.235 0 66.443604 0.00097751606 -0.99999899 0.00097751606
113.442 0 38.3895 0.00097751606 -0.99999899 0.00097751606
22.9139 0 86.236504 0.00097751606 -0.99999899 0.00097751606
102.822 0 77.8088 0.00097751606 -0.99999899 0.00097751606
33.496101 0 80.578003 0.00097751606 -0.99999899 0.00097751606
129.63 0 66.790001 0.00097751606 -0.99999899 0.00097751606
98.920197 0 87.435402 0.00097751606 -0.99999899 0.00097751606
75.760597 0 85.473602 0.00097751606 -0.99999899 0.00097751606
104.11 0 69.254204 0.00097751606 -0.99999899 0.00097751606
143.591 0 83.654198 0.00097751606 -0.99999899 0.00097751606
92.159401 0 69.813797 0.00097751606 -0.99999899 0.00097751606
20.4347 0 89.997299 0.00097751606 -0.99999899 0.00097751606
41.725399 0 67.289398 0.00097751606 -0.99999899 0.00097751606
72.378098 0 55.670502 0.00097751606 -0.99999899 0.00097751606
140.674 0 84.3871 0.00097751606 -0.99999899 0.00097751606
47.971401 0 83.161201 0.00097751606 -0.99999899 0.00097751606
122.907 0 80.2873 0.00097751606 -0.99999899 0.00097751606
129.259 0 15.797 0.00097751606 -0.99999899 0.00097751606
74.843803 0 78.858101 0.00097751606 -0.99999899 0.00097751606
84.362099 0 90.497101 0.00097751606 -0.99999899 0.00097751606
108.288 0 30.466299 0.00097751606 -0.99999899 0.00097751606
119.591 0 61.400002 0.00097751606 -0.99999899 0.00097751606
87.986603 0 84.927002 0.00097751606 -0.99999899 0.00097751606
34.726101 0 88.404999 0.00097751606 -0.99999899 0.00097751606
122.675 0 65.866302 0.00097751606 -0.99999899 0.00097751606
88.633202 0 79.111 0.00097751606 -0.99999899 0.00097751606
141.446 0 10.5063 0.00097751606 -0.99999899 0.00097751606
