# .PCD v0.7 - Point Cloud Data file format
VERSION 0.7
FIELDS x y z normal_x normal_y normal_z
SIZE 4 4 4 4 4 4
TYPE F F F F F F
COUNT 1 1 1 1 1 1
WIDTH 740
HEIGHT 1
VIEWPOINT 0 0 0 1 0 0 0
POINTS 740
DATA ascii
0.069430701 0 0.023213601 0.00097751606 -0.99999899 0.00097751606
0.113814 0 0.00277826 0.00097751606 -0.99999899 0.00097751606
0.055523399 0 0.0132838 0.00097751606 -0.99999899 0.00097751606
0.020494999 0 0.021641299 0.00097751606 -0.99999899 0.00097751606
0.044271499 0 0.0247263 0.00097751606 -0.99999899 0.00097751606
0.058854301 0 0.0427146 0.00097751606 -0.99999899 0.00097751606
0.0195473 0 0.061070599 0.00097751606 -0.99999899 0.00097751606
0.034213401 0 0.066939898 0.00097751606 -0.99999899 0.00097751606
0.059085101 0 0.034671001 0.00097751606 -0.99999899 0.00097751606
0.0059214998 0 0.086674199 0.00097751606 -0.99999899 0.00097751606
0.0360635 0 0.0069274302 0.00097751606 -0.99999899 0.00097751606
0.0370759 0 0.0051418901 0.00097751606 -0.99999899 0.00097751606
0.042949501 0 0.022388 0.00097751606 -0.99999899 0.00097751606
0.0036223801 0 0.029294301 0.00097751606 -0.99999899 0.00097751606
0.0146228 0 0.056711201 0.00097751606 -0.99999899 0.00097751606
0.051164001 0 0.00427585 0.00097751606 -0.99999899 0.00097751606
0.068099499 0 0.0102784 0.00097751606 -0.99999899 0.00097751606
0.0418192 0 0.037515499 0.00097751606 -0.99999899 0.00097751606
0.088961899 0 0.0037972401 0.00097751606 -0.99999899 0.00097751606
0.0237315 0 0.0410471 0.00097751606 -0.99999899 0.00097751606
0.0341128 0 0.0073122699 0.00097751606 -0.99999899 0.00097751606
0.0282862 0 0.041326001 0.00097751606 -0.99999899 0.00097751606
0.0202877 0 0.00129273 0.00097751606 -0.99999899 0.00097751606
0.032176599 0 0.0069775302 0.00097751606 -0.99999899 0.00097751606
0.070237398 0 0.032705899 0.00097751606 -0.99999899 0.00097751606
0.122594 0 0.011087 0.00097751606 -0.99999899 0.00097751606
0.062655598 0 0.026638599 0.00097751606 -0.99999899 0.00097751606
0.104252 0 0.00199178 0.00097751606 -0.99999899 0.00097751606
0.0016979499 0 0.035759799 0.00097751606 -0.99999899 0.00097751606
0.0210471 0 0.0101008 0.00097751606 -0.99999899 0.00097751606
0.020825099 0 0.075188801 0.00097751606 -0.99999899 0.00097751606
0.0041528898 0 0.073713303 0.00097751606 -0.99999899 0.00097751606
0.0121242 0 0.02699 0.00097751606 -0.99999899 0.00097751606
0.000223562 0 0.0279622 0.00097751606 -0.99999899 0.00097751606
0.137113 0 0.00137521 0.00097751606 -0.99999899 0.00097751606
0.0978112 0 2.12376e-05 0.00097751606 -0.99999899 0.00097751606
0.0150881 0 0.0047936798 0.00097751606 -0.99999899 0.00097751606
0.040842801 0 0.065504603 0.00097751606 -0.99999899 0.00097751606
0.0085857697 0 0.054442599 0.00097751606 -0.99999899 0.00097751606
0.068425201 0 0.040255599 0.00097751606 -0.99999899 0.00097751606
0.0384732 0 0.046252102 0.00097751606 -0.99999899 0.00097751606
0.023326101 0 0.048280898 0.00097751606 -0.99999899 0.00097751606
0.01369 0 0.064223103 0.00097751606 -0.99999899 0.00097751606
0.0234681 0 0.0286684 0.00097751606 -0.99999899 0.00097751606
0.025529001 0 0.067078598 0.00097751606 -0.99999899 0.00097751606
0.074929498 0 0.0025035299 0.00097751606 -0.99999899 0.00097751606
0.100105 0 0.0075841499 0.00097751606 -0.99999899 0.00097751606
0.042544398 0 0.032436699 0.00097751606 -0.99999899 0.00097751606
0.020519201 0 0.022433899 0.00097751606 -0.99999899 0.00097751606
0.0057883901 0 0.084508203 0.00097751606 -0.99999899 0.00097751606
0.0133086 0 0.063137598 0.00097751606 -0.99999899 0.00097751606
0.026843799 0 0.0089055896 0.00097751606 -0.99999899 0.00097751606
0.029927401 0 0.0710731 0.00097751606 -0.99999899 0.00097751606
0.072814099 0 0.0080301398 0.00097751606 -0.99999899 0.00097751606
0.00176515 0 0.0499864 0.00097751606 -0.99999899 0.00097751606
0.0192931 0 0.042563599 0.00097751606 -0.99999899 0.00097751606
0.121976 0 0.0040593999 0.00097751606 -0.99999899 0.00097751606
0.073815003 0 0.018911401 0.00097751606 -0.99999899 0.00097751606
0.0109727 0 0.0121532 0.00097751606 -0.99999899 0.00097751606
0.060838401 0 0.0179938 0.00097751606 -0.99999899 0.00097751606
0.060602799 0 0.042496301 0.00097751606 -0.99999899 0.00097751606
0.00126476 0 0.050042301 0.00097751606 -0.99999899 0.00097751606
0.055710498 0 0.030097 0.00097751606 -0.99999899 0.00097751606
0.0570825 0 0.039279699 0.00097751606 -0.99999899 0.00097751606
0.052301198 0 0.040591002 0.00097751606 -0.99999899 0.00097751606
0.024133399 0 0.056628998 0.00097751606 -0.99999899 0.00097751606
0.038989399 0 0.045642901 0.00097751606 -0.99999899 0.00097751606
0.031824902 0 0.053789798 0.00097751606 -0.99999899 0.00097751606
0.023685601 0 0.042165201 0.00097751606 -0.99999899 0.00097751606
0.0275588 0 0.018805901 0.00097751606 -0.99999899 0.00097751606
0.0045532598 0 0.085758999 0.00097751606 -0.99999899 0.00097751606
0.0360003 0 0.0135891 0.00097751606 -0.99999899 0.00097751606
0.0270727 0 0.028554 0.00097751606 -0.99999899 0.00097751606
0.00129336 0 0.082166001 0.00097751606 -0.99999899 0.00097751606
0.096213602 0 0.0058770301 0.00097751606 -0.99999899 0.00097751606
0.047208302 0 0.044050999 0.00097751606 -0.99999899 0.00097751606
0.0192056 0 0.061057299 0.00097751606 -0.99999899 0.00097751606
0.0134993 0 0.0145829 0.00097751606 -0.99999899 0.00097751606
0.088945299 0 0.020687301 0.00097751606 -0.99999899 0.00097751606
0.128304 0 0.0072387098 0.00097751606 -0.99999899 0.00097751606
0.0041883299 0 0.081376597 0.00097751606 -0.99999899 0.00097751606
0.069619499 0 0.019000201 0.00097751606 -0.99999899 0.00097751606
0.0060810898 0 0.081967898 0.00097751606 -0.99999899 0.00097751606
0.029164899 0 0.018198799 0.00097751606 -0.99999899 0.00097751606
0.032889299 0 0.0119302 0.00097751606 -0.99999899 0.00097751606
0.0584049 0 0.0471894 0.00097751606 -0.99999899 0.00097751606
0.075309999 0 0.013639 0.00097751606 -0.99999899 0.00097751606
0.027605001 0 0.0353298 0.00097751606 -0.99999899 0.00097751606
0.0540976 0 0.0061958302 0.00097751606 -0.99999899 0.00097751606
0.00117405 0 0.0519283 0.00097751606 -0.99999899 0.00097751606
0.063616902 0 0.051109701 0.00097751606 -0.99999899 0.00097751606
0.0416671 0 0.018257 0.00097751606 -0.99999899 0.00097751606
0.034290601 0 0.0034407 0.00097751606 -0.99999899 0.00097751606
0.0032194401 0 0.0066768001 0.00097751606 -0.99999899 0.00097751606
0.094632201 0 0.0237388 0.00097751606 -0.99999899 0.00097751606
0.047469601 0 0.027940299 0.00097751606 -0.99999899 0.00097751606
0.0382795 0 0.036262099 0.00097751606 -0.99999899 0.00097751606
0.034434501 0 0.051612299 0.00097751606 -0.99999899 0.00097751606
0.00105738 0 0.016770501 0.00097751606 -0.99999899 0.00097751606
0.0141131 0 0.0243928 0.00097751606 -0.99999899 0.00097751606
0.076580897 0 0.041897699 0.00097751606 -0.99999899 0.00097751606
0.070747003 0 0.021847701 0.00097751606 -0.99999899 0.00097751606
0.0130961 0 0.054303601 0.00097751606 -0.99999899 0.00097751606
0.079098299 0 0.036074601 0.00097751606 -0.99999899 0.00097751606
0.039976802 0 0.0474439 0.00097751606 -0.99999899 0.00097751606
0.0051761898 0 0.0371379 0.00097751606 -0.99999899 0.00097751606
0.089334197 0 0.026880801 0.00097751606 -0.99999899 0.00097751606
0.047026899 0 0.016083799 0.00097751606 -0.99999899 0.00097751606
0.046029098 0 0.0415488 0.00097751606 -0.99999899 0.00097751606
0.0171538 0 0.080121197 0.00097751606 -0.99999899 0.00097751606
0.0516835 0 0.046477702 0.00097751606 -0.99999899 0.00097751606
0.096777797 0 0.0034791301 0.00097751606 -0.99999899 0.00097751606
0.0312388 0 0.070992403 0.00097751606 -0.99999899 0.00097751606
0.116643 0 0.00516163 0.00097751606 -0.99999899 0.00097751606
0.0088065602 0 0.020873901 0.00097751606 -0.99999899 0.00097751606
0.026502199 0 0.052192502 0.00097751606 -0.99999899 0.00097751606
0.0053350399 0 0.079816297 0.00097751606 -0.99999899 0.00097751606
0.093227699 0 0.0091225998 0.00097751606 -0.99999899 0.00097751606
0.045898098 0 0.037657801 0.00097751606 -0.99999899 0.00097751606
0.103558 0 0.0149343 0.00097751606 -0.99999899 0.00097751606
0.0227853 0 0.027565699 0.00097751606 -0.99999899 0.00097751606
0.074498899 0 0.033170599 0.00097751606 -0.99999899 0.00097751606
0.0133469 0 0.020064499 0.00097751606 -0.99999899 0.00097751606
0.051905699 0 0.021211701 0.00097751606 -0.99999899 0.00097751606
0.0290611 0 0.031145399 0.00097751606 -0.99999899 0.00097751606
0.0588868 0 0.023865899 0.00097751606 -0.99999899 0.00097751606
0.064831398 0 0.00575817 0.00097751606 -0.99999899 0.00097751606
0.0178556 0 0.0138675 0.00097751606 -0.99999899 0.00097751606
0.0300925 0 0.057122398 0.00097751606 -0.99999899 0.00097751606
0.0619235 0 0.0135896 0.00097751606 -0.99999899 0.00097751606
0.0012060601 0 0.023646399 0.00097751606 -0.99999899 0.00097751606
0.099181101 0 0.0135047 0.00097751606 -0.99999899 0.00097751606
0.043720901 0 0.0276266 0.00097751606 -0.99999899 0.00097751606
0.0465305 0 0.0266828 0.00097751606 -0.99999899 0.00097751606
0.12543499 0 0.00078199798 0.00097751606 -0.99999899 0.00097751606
0.067464098 0 0.019355999 0.00097751606 -0.99999899 0.00097751606
0.077329598 0 0.0208745 0.00097751606 -0.99999899 0.00097751606
0.037241202 0 0.023512799 0.00097751606 -0.99999899 0.00097751606
0.039573099 0 0.035964299 0.00097751606 -0.99999899 0.00097751606
0.033659101 0 0.0109484 0.00097751606 -0.99999899 0.00097751606
0.043776799 0 0.028712999 0.00097751606 -0.99999899 0.00097751606
0.0191526 0 0.00432393 0.00097751606 -0.99999899 0.00097751606
0.060440902 0 0.029259199 0.00097751606 -0.99999899 0.00097751606
0.048704501 0 0.017144799 0.00097751606 -0.99999899 0.00097751606
0.101722 0 0.0070287101 0.00097751606 -0.99999899 0.00097751606
0.094988801 0 0.0233806 0.00097751606 -0.99999899 0.00097751606
0.137058 0 0.0051667602 0.00097751606 -0.99999899 0.00097751606
0.000114776 0 0.0484275 0.00097751606 -0.99999899 0.00097751606
0.018376799 0 0.0590383 0.00097751606 -0.99999899 0.00097751606
0.094436698 0 0.0139439 0.00097751606 -0.99999899 0.00097751606
0.121442 0 0.0051758499 0.00097751606 -0.99999899 0.00097751606
0.112436 0 0.00201263 0.00097751606 -0.99999899 0.00097751606
0.124497 0 0.0094625903 0.00097751606 -0.99999899 0.00097751606
0.115999 0 0.010439 0.00097751606 -0.99999899 0.00097751606
0.0499174 0 0.0300285 0.00097751606 -0.99999899 0.00097751606
0.000379957 0 0.0599158 0.00097751606 -0.99999899 0.00097751606
0.049924199 0 0.0061323801 0.00097751606 -0.99999899 0.00097751606
0.031479001 0 0.00778923 0.00097751606 -0.99999899 0.00097751606
0.028926499 0 0.036023598 0.00097751606 -0.99999899 0.00097751606
0.072051898 0 0.025215 0.00097751606 -0.99999899 0.00097751606
0.025975799 0 0.065278798 0.00097751606 -0.99999899 0.00097751606
0.0642104 0 0.0501532 0.00097751606 -0.99999899 0.00097751606
0.091756597 0 0.016603 0.00097751606 -0.99999899 0.00097751606
0.13027599 0 0.00184651 0.00097751606 -0.99999899 0.00097751606
0.102213 0 0.0232262 0.00097751606 -0.99999899 0.00097751606
0.0509312 0 0.0557466 0.00097751606 -0.99999899 0.00097751606
0.063430399 0 0.0506365 0.00097751606 -0.99999899 0.00097751606
0.084621102 0 0.0313663 0.00097751606 -0.99999899 0.00097751606
0.027849 0 0.054264698 0.00097751606 -0.99999899 0.00097751606
0.075178102 0 0.022274399 0.00097751606 -0.99999899 0.00097751606
0.065786503 0 0.039019801 0.00097751606 -0.99999899 0.00097751606
0.060153801 0 0.053061299 0.00097751606 -0.99999899 0.00097751606
0.087329596 0 0.0181763 0.00097751606 -0.99999899 0.00097751606
0.00062259298 0 0.019673901 0.00097751606 -0.99999899 0.00097751606
0.05446 0 0.046651602 0.00097751606 -0.99999899 0.00097751606
0.086782202 0 0.0255417 0.00097751606 -0.99999899 0.00097751606
0.024893699 0 0.036980901 0.00097751606 -0.99999899 0.00097751606
0.066063702 0 0.0040809899 0.00097751606 -0.99999899 0.00097751606
0.0049971198 0 0.073388703 0.00097751606 -0.99999899 0.00097751606
0.0532328 0 0.00091454602 0.00097751606 -0.99999899 0.00097751606
0.079094298 0 0.026220599 0.00097751606 -0.99999899 0.00097751606
0.116607 0 0.00486936 0.00097751606 -0.99999899 0.00097751606
0.087594002 0 0.0148196 0.00097751606 -0.99999899 0.00097751606
0.0288548 0 0.0527553 0.00097751606 -0.99999899 0.00097751606
0.0274968 0 0.028934101 0.00097751606 -0.99999899 0.00097751606
0.0120452 0 0.064596198 0.00097751606 -0.99999899 0.00097751606
0.023915499 0 0.054200001 0.00097751606 -0.99999899 0.00097751606
0.113573 0 0.00721775 0.00097751606 -0.99999899 0.00097751606
0.036118198 0 0.0232653 0.00097751606 -0.99999899 0.00097751606
0.0128382 0 0.0179369 0.00097751606 -0.99999899 0.00097751606
0.0197585 0 0.058541398 0.00097751606 -0.99999899 0.00097751606
0.056784902 0 0.0422449 0.00097751606 -0.99999899 0.00097751606
0.030793799 0 0.069784001 0.00097751606 -0.99999899 0.00097751606
0.107155 0 0.011245 0.00097751606 -0.99999899 0.00097751606
0.113154 0 0.017734 0.00097751606 -0.99999899 0.00097751606
0.078061901 0 0.0271556 0.00097751606 -0.99999899 0.00097751606
0.121706 0 0.0032412901 0.00097751606 -0.99999899 0.00097751606
0.109795 0 0.0135663 0.00097751606 -0.99999899 0.00097751606
0.0077264998 0 0.0131069 0.00097751606 -0.99999899 0.00097751606
0.102599 0 0.0248849 0.00097751606 -0.99999899 0.00097751606
0.031576801 0 0.055907998 0.00097751606 -0.99999899 0.00097751606
0.093190297 0 0.0237856 0.00097751606 -0.99999899 0.00097751606
0.102977 0 0.0185264 0.00097751606 -0.99999899 0.00097751606
0.101122 0 0.0136758 0.00097751606 -0.99999899 0.00097751606
0.072631203 0 0.031927399 0.00097751606 -0.99999899 0.00097751606
0.050451301 0 0.051433399 0.00097751606 -0.99999899 0.00097751606
0.065340899 0 0.046997201 0.00097751606 -0.99999899 0.00097751606
0.068676896 0 0.038416799 0.00097751606 -0.99999899 0.00097751606
0.100479 0 0.0062231901 0.00097751606 -0.99999899 0.00097751606
0.033030801 0 0.0481118 0.00097751606 -0.99999899 0.00097751606
0.0034437899 0 0.0387921 0.00097751606 -0.99999899 0.00097751606
0.058990698 0 0.0087181497 0.00097751606 -0.99999899 0.00097751606
0.0129939 0 0.017379301 0.00097751606 -0.99999899 0.00097751606
0.038328901 0 0.019880701 0.00097751606 -0.99999899 0.00097751606
0.00328753 0 0.021350499 0.00097751606 -0.99999899 0.00097751606
0.00283588 0 0.0061222999 0.00097751606 -0.99999899 0.00097751606
0.025179001 0 0.040810902 0.00097751606 -0.99999899 0.00097751606
0.095633604 0 0.0255614 0.00097751606 -0.99999899 0.00097751606
0.035821401 0 0.067968503 0.00097751606 -0.99999899 0.00097751606
0.059775501 0 0.044096801 0.00097751606 -0.99999899 0.00097751606
0.0021897701 0 0.0060231201 0.00097751606 -0.99999899 0.00097751606
0.017822299 0 0.044126 0.00097751606 -0.99999899 0.00097751606
0.048448101 0 0.053388201 0.00097751606 -0.99999899 0.00097751606
0.051567599 0 0.050543599 0.00097751606 -0.99999899 0.00097751606
0.0077693802 0 0.066413201 0.00097751606 -0.99999899 0.00097751606
0.080628797 0 0.017125901 0.00097751606 -0.99999899 0.00097751606
0.0031300799 0 0.056806501 0.00097751606 -0.99999899 0.00097751606
0.042851601 0 0.064603299 0.00097751606 -0.99999899 0.00097751606
0.0089996196 0 0.0096780397 0.00097751606 -0.99999899 0.00097751606
0.097450502 0 0.0076431199 0.00097751606 -0.99999899 0.00097751606
0.037233401 0 0.063984796 0.00097751606 -0.99999899 0.00097751606
0.0254167 0 0.022677099 0.00097751606 -0.99999899 0.00097751606
0.0204079 0 0.025230501 0.00097751606 -0.99999899 0.00097751606
0.00139078 0 0.037549701 0.00097751606 -0.99999899 0.00097751606
0.0077004 0 0.051737301 0.00097751606 -0.99999899 0.00097751606
0.122096 0 0.0147471 0.00097751606 -0.99999899 0.00097751606
0.080450699 0 0.0238286 0.00097751606 -0.99999899 0.00097751606
0.041223001 0 0.0344446 0.00097751606 -0.99999899 0.00097751606
0.053723302 0 0.043273401 0.00097751606 -0.99999899 0.00097751606
0.121703 0 0.015624 0.00097751606 -0.99999899 0.00097751606
0.037164599 0 0.059560701 0.00097751606 -0.99999899 0.00097751606
0.0057148398 0 0.075462699 0.00097751606 -0.99999899 0.00097751606
0.0123264 0 0.052091099 0.00097751606 -0.99999899 0.00097751606
0.016802499 0 0.058015499 0.00097751606 -0.99999899 0.00097751606
0.078313001 0 0.010849 0.00097751606 -0.99999899 0.00097751606
0.0027213399 0 0.027904499 0.00097751606 -0.99999899 0.00097751606
0.068374299 0 0.036408901 0.00097751606 -0.99999899 0.00097751606
0.068828598 0 0.027049201 0.00097751606 -0.99999899 0.00097751606
0.064789198 0 0.046382599 0.00097751606 -0.99999899 0.00097751606
0.063958302 0 0.026635 0.00097751606 -0.99999899 0.00097751606
0.038005602 0 0.063813798 0.00097751606 -0.99999899 0.00097751606
0.014514 0 0.0165978 0.00097751606 -0.99999899 0.00097751606
0.056124002 0 0.025531299 0.00097751606 -0.99999899 0.00097751606
0.095673598 0 0.0153176 0.00097751606 -0.99999899 0.00097751606
0.0291014 0 0.0603608 0.00097751606 -0.99999899 0.00097751606
0.059360102 0 0.052015401 0.00097751606 -0.99999899 0.00097751606
0.095207103 0 0.025609599 0.00097751606 -0.99999899 0.00097751606
0.088627301 0 0.029116601 0.00097751606 -0.99999899 0.00097751606
0.060258999 0 0.039893702 0.00097751606 -0.99999899 0.00097751606
0.029754501 0 0.053950399 0.00097751606 -0.99999899 0.00097751606
0.033776902 0 0.064026803 0.00097751606 -0.99999899 0.00097751606
0.0695168 0 0.045584202 0.00097751606 -0.99999899 0.00097751606
0.109234 0 0.0050948998 0.00097751606 -0.99999899 0.00097751606
0.051074199 0 0.053355198 0.00097751606 -0.99999899 0.00097751606
0.000239855 0 0.073886298 0.00097751606 -0.99999899 0.00097751606
0.0146044 0 0.00130565 0.00097751606 -0.99999899 0.00097751606
0.00130719 0 0.090434603 0.00097751606 -0.99999899 0.00097751606
0.0167209 0 0.0643856 0.00097751606 -0.99999899 0.00097751606
0.0079204701 0 0.048075002 0.00097751606 -0.99999899 0.00097751606
0.047525302 0 0.000138093 0.00097751606 -0.99999899 0.00097751606
0.043284599 0 0.0256139 0.00097751606 -0.99999899 0.00097751606
0.0057973098 0 0.081191003 0.00097751606 -0.99999899 0.00097751606
0.044579498 0 0.039568499 0.00097751606 -0.99999899 0.00097751606
0.049930401 0 0.0596673 0.00097751606 -0.99999899 0.00097751606
0.110411 0 0.0085553797 0.00097751606 -0.99999899 0.00097751606
0.120994 0 0.00287059 0.00097751606 -0.99999899 0.00097751606
0.119157 0 0.0086759804 0.00097751606 -0.99999899 0.00097751606
0.026825299 0 0.056115899 0.00097751606 -0.99999899 0.00097751606
0.074395299 0 0.036455501 0.00097751606 -0.99999899 0.00097751606
0.067790397 0 0.0104357 0.00097751606 -0.99999899 0.00097751606
0.00059952599 0 0.0178401 0.00097751606 -0.99999899 0.00097751606
0.035500899 0 0.0529419 0.00097751606 -0.99999899 0.00097751606
0.031140599 0 0.065858901 0.00097751606 -0.99999899 0.00097751606
0.088397503 0 0.0233867 0.00097751606 -0.99999899 0.00097751606
0.104408 0 0.022379201 0.00097751606 -0.99999899 0.00097751606
0.00185175 0 0.0075159301 0.00097751606 -0.99999899 0.00097751606
0.091440402 0 0.033378098 0.00097751606 -0.99999899 0.00097751606
0.0062847198 0 0.026479499 0.00097751606 -0.99999899 0.00097751606
0.131703 0 0.0026925399 0.00097751606 -0.99999899 0.00097751606
0.0264052 0 0.072542399 0.00097751606 -0.99999899 0.00097751606
0.0162709 0 0.078528002 0.00097751606 -0.99999899 0.00097751606
0.089800298 0 0.031690001 0.00097751606 -0.99999899 0.00097751606
0.0301331 0 0.0385167 0.00097751606 -0.99999899 0.00097751606
0.0119175 0 0.0498484 0.00097751606 -0.99999899 0.00097751606
0.0188359 0 0.0233755 0.00097751606 -0.99999899 0.00097751606
0.0273086 0 0.038605299 0.00097751606 -0.99999899 0.00097751606
0.067018397 0 0.0055794599 0.00097751606 -0.99999899 0.00097751606
0.021244099 0 0.0131612 0.00097751606 -0.99999899 0.00097751606
0.00026830201 0 0.085505597 0.00097751606 -0.99999899 0.00097751606
0.00595588 0 0.087703399 0.00097751606 -0.99999899 0.00097751606
0.0166461 0 0.076706499 0.00097751606 -0.99999899 0.00097751606
0.0040146401 0 0.0061611398 0.00097751606 -0.99999899 0.00097751606
0.085563503 0 0.0308579 0.00097751606 -0.99999899 0.00097751606
0.049944401 0 0.0091750696 0.00097751606 -0.99999899 0.00097751606
0.00538855 0 0.0576187 0.00097751606 -0.99999899 0.00097751606
0.0656306 0 0.0109943 0.00097751606 -0.99999899 0.00097751606
0.0857291 0 0.025602199 0.00097751606 -0.99999899 0.00097751606
0.0241313 0 0.027885901 0.00097751606 -0.99999899 0.00097751606
0.00130876 0 0.063033 0.00097751606 -0.99999899 0.00097751606
0.0293562 0 0.054543901 0.00097751606 -0.99999899 0.00097751606
0.0509643 0 0.054136802 0.00097751606 -0.99999899 0.00097751606
0.059016801 0 0.036030099 0.00097751606 -0.99999899 0.00097751606
0.071148597 0 0.037819002 0.00097751606 -0.99999899 0.00097751606
0.057007998 0 0.0329592 0.00097751606 -0.99999899 0.00097751606
0.0153216 0 0.047853801 0.00097751606 -0.99999899 0.00097751606
0.0811745 0 0.0187179 0.00097751606 -0.99999899 0.00097751606
0.112308 0 0.00290973 0.00097751606 -0.99999899 0.00097751606
0.074060299 0 0.0016141 0.00097751606 -0.99999899 0.00097751606
0.052799299 0 0.0288592 0.00097751606 -0.99999899 0.00097751606
0.0111073 0 0.0705176 0.00097751606 -0.99999899 0.00097751606
0.026123499 0 0.029257501 0.00097751606 -0.99999899 0.00097751606
0.0905682 0 0.0292542 0.00097751606 -0.99999899 0.00097751606
0.0118 0 0.067791298 0.00097751606 -0.99999899 0.00097751606
0.0148924 0 0.066299498 0.00097751606 -0.99999899 0.00097751606
0.0922179 0 0.0259785 0.00097751606 -0.99999899 0.00097751606
0.0596053 0 0.032448102 0.00097751606 -0.99999899 0.00097751606
0.0118882 0 0.0476056 0.00097751606 -0.99999899 0.00097751606
0.074560903 0 0.0272581 0.00097751606 -0.99999899 0.00097751606
0.045529399 0 0.0487126 0.00097751606 -0.99999899 0.00097751606
0.081472002 0 0.037786201 0.00097751606 -0.99999899 0.00097751606
0.034594301 0 0.070297599 0.00097751606 -0.99999899 0.00097751606
0.033946998 0 0.044807501 0.00097751606 -0.99999899 0.00097751606
0.033659399 0 0.0506813 0.00097751606 -0.99999899 0.00097751606
0.0147329 0 0.079787597 0.00097751606 -0.99999899 0.00097751606
0.041070301 0 0.00107396 0.00097751606 -0.99999899 0.00097751606
0.0173942 0 0.0051430799 0.00097751606 -0.99999899 0.00097751606
0.063220397 0 0.00309137 0.00097751606 -0.99999899 0.00097751606
0.016040299 0 0.081748404 0.00097751606 -0.99999899 0.00097751606
0.089209199 0 0.0053548599 0.00097751606 -0.99999899 0.00097751606
0.053473402 0 0.021328 0.00097751606 -0.99999899 0.00097751606
0.0159143 0 0.060148899 0.00097751606 -0.99999899 0.00097751606
0.054956499 0 0.000164996 0.00097751606 -0.99999899 0.00097751606
0.0080729099 0 0.0116146 0.00097751606 -0.99999899 0.00097751606
0.098637603 0 0.020003101 0.00097751606 -0.99999899 0.00097751606
0.083086297 0 0.0190339 0.00097751606 -0.99999899 0.00097751606
0.122863 0 0.00026094899 0.00097751606 -0.99999899 0.00097751606
0.047444899 0 0.0162855 0.00097751606 -0.99999899 0.00097751606
0.125249 0 0.0094055198 0.00097751606 -0.99999899 0.00097751606
0.0204686 0 0.041744702 0.00097751606 -0.99999899 0.00097751606
0.046092901 0 0.0256758 0.00097751606 -0.99999899 0.00097751606
0.067048699 0 0.0080067404 0.00097751606 -0.99999899 0.00097751606
0.077483602 0 0.00339976 0.00097751606 -0.99999899 0.00097751606
0.0039222799 0 0.071333699 0.00097751606 -0.99999899 0.00097751606
0.044461701 0 0.058785301 0.00097751606 -0.99999899 0.00097751606
0.052863698 0 0.0035399401 0.00097751606 -0.99999899 0.00097751606
0.0157499 0 0.031087499 0.00097751606 -0.99999899 0.00097751606
0.058826901 0 0.026366301 0.00097751606 -0.99999899 0.00097751606
0.00204466 0 0.055629399 0.00097751606 -0.99999899 0.00097751606
0.0181909 0 0.0118762 0.00097751606 -0.99999899 0.00097751606
0.0739903 0 0.024458 0.00097751606 -0.99999899 0.00097751606
0.00069874502 0 0.051848602 0.00097751606 -0.99999899 0.00097751606
0.062133402 0 0.0298665 0.00097751606 -0.99999899 0.00097751606
0.024221901 0 0.055374999 0.00097751606 -0.99999899 0.00097751606
0.13271201 0 0.00627241 0.00097751606 -0.99999899 0.00097751606
0.096419901 0 0.00298704 0.00097751606 -0.99999899 0.00097751606
0.025603 0 0.056407999 0.00097751606 -0.99999899 0.00097751606
0.0418915 0 0.0095905801 0.00097751606 -0.99999899 0.00097751606
0.0415872 0 0.030619601 0.00097751606 -0.99999899 0.00097751606
0.0021362901 0 0.033913601 0.00097751606 -0.99999899 0.00097751606
0.0174632 0 0.0474681 0.00097751606 -0.99999899 0.00097751606
0.0281485 0 0.0302085 0.00097751606 -0.99999899 0.00097751606
0.096993603 0 0.013517 0.00097751606 -0.99999899 0.00097751606
0.0441074 0 0.00622467 0.00097751606 -0.99999899 0.00097751606
0.087312996 0 0.0153734 0.00097751606 -0.99999899 0.00097751606
0.090202197 0 0.0286688 0.00097751606 -0.99999899 0.00097751606
0.092083 0 0.0280753 0.00097751606 -0.99999899 0.00097751606
0.019512 0 0.0078745801 0.00097751606 -0.99999899 0.00097751606
0.035872798 0 0.042440102 0.00097751606 -0.99999899 0.00097751606
0.0485126 0 0.049717601 0.00097751606 -0.99999899 0.00097751606
0.024443099 0 0.072200701 0.00097751606 -0.99999899 0.00097751606
0.086218201 0 0.0314239 0.00097751606 -0.99999899 0.00097751606
0.018101299 0 0.0589731 0.00097751606 -0.99999899 0.00097751606
0.0750641 0 0.0302695 0.00097751606 -0.99999899 0.00097751606
0.057214599 0 0.036885999 0.00097751606 -0.99999899 0.00097751606
0.0079876604 0 0.025273301 0.00097751606 -0.99999899 0.00097751606
0.0409928 0 0.0155158 0.00097751606 -0.99999899 0.00097751606
0.052880399 0 0.0149173 0.00097751606 -0.99999899 0.00097751606
0.050104801 0 0.058028601 0.00097751606 -0.99999899 0.00097751606
0.109657 0 0.0095641203 0.00097751606 -0.99999899 0.00097751606
0.089682601 0 0.0102561 0.00097751606 -0.99999899 0.00097751606
0.0155595 0 0.081160799 0.00097751606 -0.99999899 0.00097751606
0.00217178 0 0.034872498 0.00097751606 -0.99999899 0.00097751606
0.070159398 0 0.018083099 0.00097751606 -0.99999899 0.00097751606
0.0082749901 0 0.045633402 0.00097751606 -0.99999899 0.00097751606
7.5005002e-05 0 0.058460802 0.00097751606 -0.99999899 0.00097751606
0.0097678602 0 0.063528799 0.00097751606 -0.99999899 0.00097751606
0.103443 0 0.0056497701 0.00097751606 -0.99999899 0.00097751606
0.049431 0 0.0209007 0.00097751606 -0.99999899 0.00097751606
0.0023161301 0 0.021330301 0.00097751606 -0.99999899 0.00097751606
0.100882 0 0.0181194 0.00097751606 -0.99999899 0.00097751606
0.052747902 0 0.0068456 0.00097751606 -0.99999899 0.00097751606
0.016982101 0 0.0082937302 0.00097751606 -0.99999899 0.00097751606
0.022481101 0 0.040957902 0.00097751606 -0.99999899 0.00097751606
0.036489502 0 0.024759799 0.00097751606 -0.99999899 0.00097751606
0.0075898198 0 0.0184846 0.00097751606 -0.99999899 0.00097751606
0.0315766 0 0.0088219596 0.00097751606 -0.99999899 0.00097751606
0.0147237 0 0.0133238 0.00097751606 -0.99999899 0.00097751606
0.128501 0 0.0087060304 0.00097751606 -0.99999899 0.00097751606
0.030089101 0 0.041313801 0.00097751606 -0.99999899 0.00097751606
0.0799224 0 0.00610741 0.00097751606 -0.99999899 0.00097751606
0.0373004 0 0.0144575 0.00097751606 -0.99999899 0.00097751606
0.0507234 0 0.0166023 0.00097751606 -0.99999899 0.00097751606
0.0150576 0 0.00503864 0.00097751606 -0.99999899 0.00097751606
0.103111 0 0.026933201 0.00097751606 -0.99999899 0.00097751606
0.043977398 0 0.0567686 0.00097751606 -0.99999899 0.00097751606
0.025789799 0 0.0058236001 0.00097751606 -0.99999899 0.00097751606
0.0715039 0 0.0237756 0.00097751606 -0.99999899 0.00097751606
0.054479901 0 0.0210394 0.00097751606 -0.99999899 0.00097751606
0.00108173 0 0.041571401 0.00097751606 -0.99999899 0.00097751606
0.026802899 0 0.031562101 0.00097751606 -0.99999899 0.00097751606
0.096294098 0 0.0198147 0.00097751606 -0.99999899 0.00097751606
0.032286301 0 0.0127546 0.00097751606 -0.99999899 0.00097751606
0.0045918501 0 0.042912401 0.00097751606 -0.99999899 0.00097751606
0.053204302 0 0.037761901 0.00097751606 -0.99999899 0.00097751606
0.0138892 0 0.0050996402 0.00097751606 -0.99999899 0.00097751606
0.0113792 0 0.0493485 0.00097751606 -0.99999899 0.00097751606
0.050518699 0 0.0132952 0.00097751606 -0.99999899 0.00097751606
0.040510099 0 0.045137499 0.00097751606 -0.99999899 0.00097751606
0.016680799 0 0.0515095 0.00097751606 -0.99999899 0.00097751606
0.0408042 0 0.045159299 0.00097751606 -0.99999899 0.00097751606
0.134702 0 0.00151418 0.00097751606 -0.99999899 0.00097751606
0.0071691899 0 0.038605999 0.00097751606 -0.99999899 0.00097751606
0.113268 0 0.0064673801 0.00097751606 -0.99999899 0.00097751606
0.0203247 0 0.0047660801 0.00097751606 -0.99999899 0.00097751606
0.0261319 0 0.0414 0.00097751606 -0.99999899 0.00097751606
0.069801703 0 0.0185731 0.00097751606 -0.99999899 0.00097751606
0.0089772101 0 0.029426999 0.00097751606 -0.99999899 0.00097751606
0.072348997 0 0.036522899 0.00097751606 -0.99999899 0.00097751606
0.025782401 0 0.0123985 0.00097751606 -0.99999899 0.00097751606
0.000410698 0 0.020672699 0.00097751606 -0.99999899 0.00097751606
0.058547702 0 0.042070199 0.00097751606 -0.99999899 0.00097751606
0.029960999 0 0.057112701 0.00097751606 -0.99999899 0.00097751606
0.056708299 0 0.048874099 0.00097751606 -0.99999899 0.00097751606
0.0548249 0 0.0290244 0.00097751606 -0.99999899 0.00097751606
0.065048397 0 0.017216001 0.00097751606 -0.99999899 0.00097751606
0.00172178 0 0.042860601 0.00097751606 -0.99999899 0.00097751606
0.0061166501 0 0.067663699 0.00097751606 -0.99999899 0.00097751606
0.0027417101 0 0.021768199 0.00097751606 -0.99999899 0.00097751606
0.088824503 0 0.021395501 0.00097751606 -0.99999899 0.00097751606
0.021128301 0 0.068689696 0.00097751606 -0.99999899 0.00097751606
0.045530502 0 0.0235142 0.00097751606 -0.99999899 0.00097751606
0.0902263 0 0.0224507 0.00097751606 -0.99999899 0.00097751606
0.0300269 0 0.052908 0.00097751606 -0.99999899 0.00097751606
0.0336316 0 0.055521101 0.00097751606 -0.99999899 0.00097751606
0.133756 0 0.0050934702 0.00097751606 -0.99999899 0.00097751606
0.047840402 0 0.024710899 0.00097751606 -0.99999899 0.00097751606
0.055218302 0 0.032713901 0.00097751606 -0.99999899 0.00097751606
0.106259 0 0.017412599 0.00097751606 -0.99999899 0.00097751606
0.052112501 0 0.0538202 0.00097751606 -0.99999899 0.00097751606
0.081458598 0 0.024522601 0.00097751606 -0.99999899 0.00097751606
0.074213803 0 0.0195361 0.00097751606 -0.99999899 0.00097751606
0.080333501 0 0.0166627 0.00097751606 -0.99999899 0.00097751606
0.043897402 0 0.0178701 0.00097751606 -0.99999899 0.00097751606
0.101858 0 0.022982201 0.00097751606 -0.99999899 0.00097751606
0.104132 0 0.00180327 0.00097751606 -0.99999899 0.00097751606
0.043158799 0 0.020881699 0.00097751606 -0.99999899 0.00097751606
0.0380277 0 0.0386496 0.00097751606 -0.99999899 0.00097751606
0.0185913 0 0.064323202 0.00097751606 -0.99999899 0.00097751606
0.027093099 0 0.063556597 0.00097751606 -0.99999899 0.00097751606
0.0070111598 0 0.0053051501 0.00097751606 -0.99999899 0.00097751606
0.079625599 0 0.0123279 0.00097751606 -0.99999899 0.00097751606
0.035442401 0 0.068530098 0.00097751606 -0.99999899 0.00097751606
0.127223 0 0.0112872 0.00097751606 -0.99999899 0.00097751606
0.052142799 0 0.055196401 0.00097751606 -0.99999899 0.00097751606
0.0466379 0 0.040726699 0.00097751606 -0.99999899 0.00097751606
0.100531 0 0.017298 0.00097751606 -0.99999899 0.00097751606
0.0345833 0 0.047753599 0.00097751606 -0.99999899 0.00097751606
0.0289771 0 0.024619401 0.00097751606 -0.99999899 0.00097751606
0.123278 0 0.0038691701 0.00097751606 -0.99999899 0.00097751606
0.036829598 0 0.043607399 0.00097751606 -0.99999899 0.00097751606
0.041596498 0 0.042501401 0.00097751606 -0.99999899 0.00097751606
0.110297 0 0.0030415 0.00097751606 -0.99999899 0.00097751606
0.0172133 0 0.0058407802 0.00097751606 -0.99999899 0.00097751606
0.0561384 0 0.0229965 0.00097751606 -0.99999899 0.00097751606
0.085265398 0 0.0169542 0.00097751606 -0.99999899 0.00097751606
0.0387609 0 0.0063622501 0.00097751606 -0.99999899 0.00097751606
0.0261104 0 0.0312497 0.00097751606 -0.99999899 0.00097751606
0.12831099 0 0.0084330402 0.00097751606 -0.99999899 0.00097751606
0.129319 0 0.0083350996 0.00097751606 -0.99999899 0.00097751606
0.063068002 0 0.031769998 0.00097751606 -0.99999899 0.00097751606
0.119291 0 0.010955 0.00097751606 -0.99999899 0.00097751606
0.104614 0 0.020814 0.00097751606 -0.99999899 0.00097751606
0.0508385 0 0.023737799 0.00097751606 -0.99999899 0.00097751606
0.084147103 0 0.018185301 0.00097751606 -0.99999899 0.00097751606
0.0112689 0 0.060174499 0.00097751606 -0.99999899 0.00097751606
0.144547 0 0.00079938897 0.00097751606 -0.99999899 0.00097751606
0.00086839503 0 0.077942699 0.00097751606 -0.99999899 0.00097751606
0.0400187 0 0.00091398199 0.00097751606 -0.99999899 0.00097751606
0.0072071101 0 0.031763501 0.00097751606 -0.99999899 0.00097751606
0.027214199 0 0.000118033 0.00097751606 -0.99999899 0.00097751606
0.0296368 0 0.0117295 0.00097751606 -0.99999899 0.00097751606
0.051098902 0 0.00695631 0.00097751606 -0.99999899 0.00097751606
0.039739501 0 0.0065638302 0.00097751606 -0.99999899 0.00097751606
0.0789885 0 0.024132799 0.00097751606 -0.99999899 0.00097751606
0.0069843899 0 0.0871595 0.00097751606 -0.99999899 0.00097751606
0.055467799 0 0.0114923 0.00097751606 -0.99999899 0.00097751606
0.0452739 0 0.019245099 0.00097751606 -0.99999899 0.00097751606
0.067040503 0 0.0050263498 0.00097751606 -0.99999899 0.00097751606
0.0027876899 0 0.0101408 0.00097751606 -0.99999899 0.00097751606
0.072691903 0 0.0150275 0.00097751606 -0.99999899 0.00097751606
0.00153314 0 0.0444372 0.00097751606 -0.99999899 0.00097751606
0.0289646 0 0.0073791202 0.00097751606 -0.99999899 0.00097751606
0.058184698 0 0.035290699 0.00097751606 -0.99999899 0.00097751606
0.0135723 0 0.040821198 0.00097751606 -0.99999899 0.00097751606
0.0662072 0 0.021409299 0.00097751606 -0.99999899 0.00097751606
0.111196 0 0.0133373 0.00097751606 -0.99999899 0.00097751606
0.087787896 0 0.0098349499 0.00097751606 -0.99999899 0.00097751606
0.0301586 0 0.056055602 0.00097751606 -0.99999899 0.00097751606
0.038513701 0 0.0645658 0.00097751606 -0.99999899 0.00097751606
0.016470199 0 0.0079559097 0.00097751606 -0.99999899 0.00097751606
0.081792697 0 0.0041384101 0.00097751606 -0.99999899 0.00097751606
0.128353 0 0.0086318403 0.00097751606 -0.99999899 0.00097751606
0.0318655 0 0.0122112 0.00097751606 -0.99999899 0.00097751606
0.0154225 0 0.047221899 0.00097751606 -0.99999899 0.00097751606
0.00121456 0 0.0259772 0.00097751606 -0.99999899 0.00097751606
0.031381398 0 0.023278899 0.00097751606 -0.99999899 0.00097751606
0.036482699 0 0.0582451 0.00097751606 -0.99999899 0.00097751606
0.028948 0 0.0182785 0.00097751606 -0.99999899 0.00097751606
0.068469897 0 0.017084399 0.00097751606 -0.99999899 0.00097751606
0.022523001 0 0.066178203 0.00097751606 -0.99999899 0.00097751606
0.019164801 0 0.055870201 0.00097751606 -0.99999899 0.00097751606
0.016803 0 0.052769501 0.00097751606 -0.99999899 0.00097751606
0.055811699 0 0.0518957 0.00097751606 -0.99999899 0.00097751606
0.068849497 0 0.027473999 0.00097751606 -0.99999899 0.00097751606
0.092563502 0 0.0301245 0.00097751606 -0.99999899 0.00097751606
0.018631 0 0.072379902 0.00097751606 -0.99999899 0.00097751606
0.055716399 0 0.032394901 0.00097751606 -0.99999899 0.00097751606
0.029378099 0 0.0145321 0.00097751606 -0.99999899 0.00097751606
0.100096 0 0.0152972 0.00097751606 -0.99999899 0.00097751606
0.051383302 0 0.0285709 0.00097751606 -0.99999899 0.00097751606
0.10826 0 0.0172881 0.00097751606 -0.99999899 0.00097751606
0.0063449098 0 0.0553202 0.00097751606 -0.99999899 0.00097751606
0.068699397 0 0.022560401 0.00097751606 -0.99999899 0.00097751606
0.056058701 0 0.0274681 0.00097751606 -0.99999899 0.00097751606
0.098339401 0 0.029896701 0.00097751606 -0.99999899 0.00097751606
0.081148803 0 0.0070682499 0.00097751606 -0.99999899 0.00097751606
0.050834 0 0.0042273402 0.00097751606 -0.99999899 0.00097751606
0.048790101 0 0.040805101 0.00097751606 -0.99999899 0.00097751606
0.033738501 0 0.0328146 0.00097751606 -0.99999899 0.00097751606
0.037014902 0 0.0154583 0.00097751606 -0.99999899 0.00097751606
0.038820401 0 0.0307869 0.00097751606 -0.99999899 0.00097751606
0.0023161401 0 0.021967901 0.00097751606 -0.99999899 0.00097751606
0.046491399 0 0.033819199 0.00097751606 -0.99999899 0.00097751606
0.0377784 0 0.0117724 0.00097751606 -0.99999899 0.00097751606
0.082851097 0 0.028933501 0.00097751606 -0.99999899 0.00097751606
0.012918 0 0.0431863 0.00097751606 -0.99999899 0.00097751606
0.103264 0 0.0152919 0.00097751606 -0.99999899 0.00097751606
0.029969901 0 0.0546805 0.00097751606 -0.99999899 0.00097751606
0.031239299 0 0.0070351399 0.00097751606 -0.99999899 0.00097751606
0.112134 0 0.0154034 0.00097751606 -0.99999899 0.00097751606
0.020480299 0 0.052400298 0.00097751606 -0.99999899 0.00097751606
0.062159099 0 0.016788 0.00097751606 -0.99999899 0.00097751606
0.081224598 0 0.034365401 0.00097751606 -0.99999899 0.00097751606
0.0115315 0 0.00632723 0.00097751606 -0.99999899 0.00097751606
0.101255 0 0.0221326 0.00097751606 -0.99999899 0.00097751606
0.0343275 0 0.00146818 0.00097751606 -0.99999899 0.00097751606
0.0381 0 0.0271051 0.00097751606 -0.99999899 0.00097751606
0.065573797 0 0.0146693 0.00097751606 -0.99999899 0.00097751606
0.064395897 0 0.040587399 0.00097751606 -0.99999899 0.00097751606
0.031583101 0 0.053583801 0.00097751606 -0.99999899 0.00097751606
0.108137 0 0.00754548 0.00097751606 -0.99999899 0.00097751606
0.068968497 0 0.0199215 0.00097751606 -0.99999899 0.00097751606
0.042417701 0 0.064915501 0.00097751606 -0.99999899 0.00097751606
0.13436601 0 0.00175424 0.00097751606 -0.99999899 0.00097751606
0.065109096 0 0.000188529 0.00097751606 -0.99999899 0.00097751606
0.021687901 0 0.0269747 0.00097751606 -0.99999899 0.00097751606
0.00487193 0 0.032026999 0.00097751606 -0.99999899 0.00097751606
0.021129699 0 0.045956999 0.00097751606 -0.99999899 0.00097751606
0.121497 0 0.00035017301 0.00097751606 -0.99999899 0.00097751606
0.0280094 0 0.062661 0.00097751606 -0.99999899 0.00097751606
0.084641099 0 0.0068815299 0.00097751606 -0.99999899 0.00097751606
0.0050737602 0 0.068147101 0.00097751606 -0.99999899 0.00097751606
0.108996 0 0.016891399 0.00097751606 -0.99999899 0.00097751606
0.072822697 0 0.045819402 0.00097751606 -0.99999899 0.00097751606
0.059473101 0 0.0055862698 0.00097751606 -0.99999899 0.00097751606
0.054381099 0 0.054425701 0.00097751606 -0.99999899 0.00097751606
0.044343699 0 0.029570701 0.00097751606 -0.99999899 0.00097751606
0.055654999 0 0.029398 0.00097751606 -0.99999899 0.00097751606
0.036005799 0 0.0287377 0.00097751606 -0.99999899 0.00097751606
0.0171257 0 0.0514303 0.00097751606 -0.99999899 0.00097751606
0.108543 0 0.010155 0.00097751606 -0.99999899 0.00097751606
0.0157778 0 0.077029899 0.00097751606 -0.99999899 0.00097751606
0.038034599 0 0.0062028202 0.00097751606 -0.99999899 0.00097751606
0.0204941 0 0.071521699 0.00097751606 -0.99999899 0.00097751606
0.032715701 0 0.0098866597 0.00097751606 -0.99999899 0.00097751606
0.071440697 0 0.0049977498 0.00097751606 -0.99999899 0.00097751606
0.088695697 0 0.0011013401 0.00097751606 -0.99999899 0.00097751606
0.065672897 0 0.0386681 0.00097751606 -0.99999899 0.00097751606
0.020416001 0 0.027016301 0.00097751606 -0.99999899 0.00097751606
0.0087406896 0 0.075823598 0.00097751606 -0.99999899 0.00097751606
0.052228399 0 0.00148889 0.00097751606 -0.99999899 0.00097751606
0.0931025 0 0.0069121299 0.00097751606 -0.99999899 0.00097751606
0.015767099 0 0.0337542 0.00097751606 -0.99999899 0.00097751606
0.065606102 0 0.0378768 0.00097751606 -0.99999899 0.00097751606
0.0145925 0 0.0250658 0.00097751606 -0.99999899 0.00097751606
0.089447498 0 0.030061901 0.00097751606 -0.99999899 0.00097751606
0.0244059 0 0.056153301 0.00097751606 -0.99999899 0.00097751606
0.032228202 0 0.00141707 0.00097751606 -0.99999899 0.00097751606
0.107973 0 0.0070112301 0.00097751606 -0.99999899 0.00097751606
0.044754501 0 0.062918998 0.00097751606 -0.99999899 0.00097751606
0.062604003 0 0.028607899 0.00097751606 -0.99999899 0.00097751606
0.018206799 0 0.0482499 0.00097751606 -0.99999899 0.00097751606
0.042626701 0 0.042454399 0.00097751606 -0.99999899 0.00097751606
0.066842102 0 0.00151205 0.00097751606 -0.99999899 0.00097751606
0.045635398 0 0.033808999 0.00097751606 -0.99999899 0.00097751606
0.0035099201 0 0.019138601 0.00097751606 -0.99999899 0.00097751606
0.031549901 0 0.046505399 0.00097751606 -0.99999899 0.00097751606
0.0081309099 0 0.0208565 0.00097751606 -0.99999899 0.00097751606
0.0509822 0 0.051136401 0.00097751606 -0.99999899 0.00097751606
0.053232599 0 0.0154952 0.00097751606 -0.99999899 0.00097751606
0.076476797 0 0.0122257 0.00097751606 -0.99999899 0.00097751606
0.0205299 0 0.0498707 0.00097751606 -0.99999899 0.00097751606
0.129994 0 0.00602875 0.00097751606 -0.99999899 0.00097751606
0.0731306 0 0.033438701 0.00097751606 -0.99999899 0.00097751606
0.114819 0 0.0083440896 0.00097751606 -0.99999899 0.00097751606
0.0285335 0 0.0320145 0.00097751606 -0.99999899 0.00097751606
0.088518798 0 0.0155581 0.00097751606 -0.99999899 0.00097751606
0.0550992 0 0.055637099 0.00097751606 -0.99999899 0.00097751606
0.109012 0 0.023325199 0.00097751606 -0.99999899 0.00097751606
0.054996401 0 0.0314481 0.00097751606 -0.99999899 0.00097751606
0.034610301 0 0.053905901 0.00097751606 -0.99999899 0.00097751606
0.0324063 0 0.050636798 0.00097751606 -0.99999899 0.00097751606
0.0133569 0 0.021191999 0.00097751606 -0.99999899 0.00097751606
0.100493 0 0.0168861 0.00097751606 -0.99999899 0.00097751606
0.034136001 0 0.0164466 0.00097751606 -0.99999899 0.00097751606
0.023339299 0 0.0116741 0.00097751606 -0.99999899 0.00097751606
0.065066203 0 0.0085474197 0.00097751606 -0.99999899 0.00097751606
0.12698101 0 0.0111638 0.00097751606 -0.99999899 0.00097751606
0.00042541299 0 0.0439521 0.00097751606 -0.99999899 0.00097751606
0.043622099 0 0.0472183 0.00097751606 -0.99999899 0.00097751606
0.098787598 0 0.025193401 0.00097751606 -0.99999899 0.00097751606
0.039045502 0 0.0111359 0.00097751606 -0.99999899 0.00097751606
0.0026376799 0 0.066418 0.00097751606 -0.99999899 0.00097751606
0.062427402 0 0.044929501 0.00097751606 -0.99999899 0.00097751606
0.043816201 0 0.0153795 0.00097751606 -0.99999899 0.00097751606
0.070552602 0 0.042038199 0.00097751606 -0.99999899 0.00097751606
0.025416 0 0.024592301 0.00097751606 -0.99999899 0.00097751606
0.00096040999 0 0.046143301 0.00097751606 -0.99999899 0.00097751606
0.109212 0 0.0078255599 0.00097751606 -0.99999899 0.00097751606
0.054707799 0 0.041138899 0.00097751606 -0.99999899 0.00097751606
0.0695097 0 0.0152802 0.00097751606 -0.99999899 0.00097751606
0.072871402 0 0.0206152 0.00097751606 -0.99999899 0.00097751606
0.074797302 0 0.0271616 0.00097751606 -0.99999899 0.00097751606
0.00153585 0 0.0520905 0.00097751606 -0.99999899 0.00097751606
0.075415701 0 0.034307901 0.00097751606 -0.99999899 0.00097751606
0.061765 0 0.052147999 0.00097751606 -0.99999899 0.00097751606
0.0270175 0 0.070620097 0.00097751606 -0.99999899 0.00097751606
0.058733799 0 0.027280601 0.00097751606 -0.99999899 0.00097751606
0.0217706 0 0.0216223 0.00097751606 -0.99999899 0.00097751606
0.072370298 0 0.0398819 0.00097751606 -0.99999899 0.00097751606
0.0215552 0 0.0067486102 0.00097751606 -0.99999899 0.00097751606
0.115284 0 0.0109367 0.00097751606 -0.99999899 0.00097751606
0.0282376 0 0.064124897 0.00097751606 -0.99999899 0.00097751606
0.002968 0 0.079646699 0.00097751606 -0.99999899 0.00097751606
0.087278098 0 0.037204798 0.00097751606 -0.99999899 0.00097751606
0.062933803 0 0.0056762001 0.00097751606 -0.99999899 0.00097751606
0.0144901 0 0.0610983 0.00097751606 -0.99999899 0.00097751606
0.027856 0 0.052090701 0.00097751606 -0.99999899 0.00097751606
0.099751502 0 0.00877106 0.00097751606 -0.99999899 0.00097751606
0.037776001 0 0.00765752 0.00097751606 -0.99999899 0.00097751606
0.12306 0 0.0136406 0.00097751606 -0.99999899 0.00097751606
0.0230891 0 0.0123826 0.00097751606 -0.99999899 0.00097751606
0.090530999 0 0.00708701 0.00097751606 -0.99999899 0.00097751606
0.072605997 0 0.045823101 0.00097751606 -0.99999899 0.00097751606
0.105535 0 0.023729499 0.00097751606 -0.99999899 0.00097751606
0.0804094 0 0.0068945498 0.00097751606 -0.99999899 0.00097751606
0.045503799 0 0.0451077 0.00097751606 -0.99999899 0.00097751606
0.0312883 0 0.0186945 0.00097751606 -0.99999899 0.00097751606
0.0066382899 0 0.0716599 0.00097751606 -0.99999899 0.00097751606
0.066465303 0 0.00379379 0.00097751606 -0.99999899 0.00097751606
0.076874897 0 0.036155201 0.00097751606 -0.99999899 0.00097751606
0.0857713 0 0.00015869499 0.00097751606 -0.99999899 0.00097751606
0.0223983 0 0.057715598 0.00097751606 -0.99999899 0.00097751606
0.053783901 0 0.023047499 0.00097751606 -0.99999899 0.00097751606
0.062343799 0 0.041378599 0.00097751606 -0.99999899 0.00097751606
0.075150304 0 0.00311658 0.00097751606 -0.99999899 0.00097751606
0.0130876 0 0.0312717 0.00097751606 -0.99999899 0.00097751606
0.064521298 0 0.032701898 0.00097751606 -0.99999899 0.00097751606
0.097223297 0 0.0050605 0.00097751606 -0.99999899 0.00097751606
0.022605499 0 0.00047857099 0.00097751606 -0.99999899 0.00097751606
0.059756599 0 0.0060795802 0.00097751606 -0.99999899 0.00097751606
0.106477 0 0.0056265802 0.00097751606 -0.99999899 0.00097751606
0.072883599 0 0.0021347799 0.00097751606 -0.99999899 0.00097751606
0.027924599 0 0.0269456 0.00097751606 -0.99999899 0.00097751606
0.102747 0 0.00976835 0.00097751606 -0.99999899 0.00097751606
0.0299627 0 0.0200362 0.00097751606 -0.99999899 0.00097751606
0.082968503 0 0.0139516 0.00097751606 -0.99999899 0.00097751606
0.0419106 0 0.059107199 0.00097751606 -0.99999899 0.00097751606
0.010302 0 0.067902498 0.00097751606 -0.99999899 0.00097751606
0.00847572 0 0.071634799 0.00097751606 -0.99999899 0.00097751606
0.074497797 0 0.023403401 0.00097751606 -0.99999899 0.00097751606
0.00031167999 0 0.057348799 0.00097751606 -0.99999899 0.00097751606
0.049102899 0 0.0196256 0.00097751606 -0.99999899 0.00097751606
0.119599 0 0.0147709 0.00097751606 -0.99999899 0.00097751606
0.0119252 0 0.0051204199 0.00097751606 -0.99999899 0.00097751606
0.047242802 0 0.0148919 0.00097751606 -0.99999899 0.00097751606
0.0590657 0 0.0101952 0.00097751606 -0.99999899 0.00097751606
0.039055299 0 0.066448502 0.00097751606 -0.99999899 0.00097751606
0.0572436 0 0.016332399 0.00097751606 -0.99999899 0.00097751606
0.033434302 0 0.0507733 0.00097751606 -0.99999899 0.00097751606
0.018048 0 0.0232486 0.00097751606 -0.99999899 0.00097751606
0.0091131004 0 0.020469001 0.00097751606 -0.99999899 0.00097751606
0.073531099 0 0.0044044801 0.00097751606 -0.99999899 0.00097751606
0.044794399 0 0.0062253298 0.00097751606 -0.99999899 0.00097751606
0.052861199 0 0.039607499 0.00097751606 -0.99999899 0.00097751606
0.087722898 0 0.0261347 0.00097751606 -0.99999899 0.00097751606
0.039360199 0 0.048590198 0.00097751606 -0.99999899 0.00097751606
0.0366605 0 0.0331061 0.00097751606 -0.99999899 0.00097751606
0.106398 0 0.00048712001 0.00097751606 -0.99999899 0.00097751606
0.021778399 0 0.00104695 0.00097751606 -0.99999899 0.00097751606
0.074395798 0 0.0026191201 0.00097751606 -0.99999899 0.00097751606
0.112245 0 0.0079734996 0.00097751606 -0.99999899 0.00097751606
0.130419 0 0.0043692202 0.00097751606 -0.99999899 0.00097751606
0.047789201 0 0.031277001 0.00097751606 -0.99999899 0.00097751606
0.019122699 0 0.0376282 0.00097751606 -0.99999899 0.00097751606
0.055251699 0 0.045672901 0.00097751606 -0.99999899 0.00097751606
0.055585999 0 0.021686301 0.00097751606 -0.99999899 0.00097751606
0.109625 0 0.00181226 0.00097751606 -0.99999899 0.00097751606
0.101947 0 0.021862401 0.00097751606 -0.99999899 0.00097751606
0.0120742 0 0.036803301 0.00097751606 -0.99999899 0.00097751606
0.055986401 0 0.018434901 0.00097751606 -0.99999899 0.00097751606
0.1114 0 0.018611601 0.00097751606 -0.99999899 0.00097751606
0.018045099 0 0.073476501 0.00097751606 -0.99999899 0.00097751606
0.024676999 0 0.064168498 0.00097751606 -0.99999899 0.00097751606
0.0263608 0 0.0093204305 0.00097751606 -0.99999899 0.00097751606
0.050717 0 0.0068165101 0.00097751606 -0.99999899 0.00097751606
0.036671601 0 0.067615896 0.00097751606 -0.99999899 0.00097751606
0.0060422202 0 0.0265885 0.00097751606 -0.99999899 0.00097751606
0.044320401 0 0.0394428 0.00097751606 -0.99999899 0.00097751606
0.042073101 0 0.062891603 0.00097751606 -0.99999899 0.00097751606
