# .PCD v0.7 - Point Cloud Data file format
VERSION 0.7
FIELDS x y z normal_x normal_y normal_z
SIZE 4 4 4 4 4 4
TYPE F F F F F F
COUNT 1 1 1 1 1 1
WIDTH 649
HEIGHT 1
VIEWPOINT 0 0 0 1 0 0 0
POINTS 649
DATA ascii
0.00200447 0.061999999 0.077695303 0.00097751606 0.99999899 0.00097751606
0.0071065999 0.061999999 0.059456602 0.00097751606 0.99999899 0.00097751606
0.0213612 0.061999999 0.0550742 0.00097751606 0.99999899 0.00097751606
0.0607059 0.061999999 0.025881199 0.00097751606 0.99999899 0.00097751606
0.0106772 0.061999999 0.0145245 0.00097751606 0.99999899 0.00097751606
0.039105002 0.061999999 0.0126375 0.00097751606 0.99999899 0.00097751606
0.129375 0.061999999 0.0068941498 0.00097751606 0.99999899 0.00097751606
0.088394701 0.061999999 0.0154522 0.00097751606 0.99999899 0.00097751606
0.078928702 0.061999999 0.024624901 0.00097751606 0.99999899 0.00097751606
0.062100898 0.061999999 0.0275745 0.00097751606 0.99999899 0.00097751606
0.113504 0.061999999 0.0180043 0.00097751606 0.99999899 0.00097751606
0.037157901 0.061999999 0.024236901 0.00097751606 0.99999899 0.00097751606
0.102224 0.061999999 0.0099952295 0.00097751606 0.99999899 0.00097751606
0.079590604 0.061999999 0.041481301 0.00097751606 0.99999899 0.00097751606
0.015694899 0.061999999 0.064439803 0.00097751606 0.99999899 0.00097751606
0.021223901 0.061999999 0.072078899 0.00097751606 0.99999899 0.00097751606
0.040440299 0.061999999 0.059167001 0.00097751606 0.99999899 0.00097751606
0.073942997 0.061999999 0.0047525498 0.00097751606 0.99999899 0.00097751606
0.090198398 0.061999999 0.0247158 0.00097751606 0.99999899 0.00097751606
0.0035578499 0.061999999 0.0137304 0.00097751606 0.99999899 0.00097751606
0.0158809 0.061999999 0.025101099 0.00097751606 0.99999899 0.00097751606
0.0524005 0.061999999 0.0037764499 0.00097751606 0.99999899 0.00097751606
0.103613 0.061999999 0.0060710902 0.00097751606 0.99999899 0.00097751606
0.081876598 0.061999999 0.0074430401 0.00097751606 0.99999899 0.00097751606
0.059583399 0.061999999 0.048208699 0.00097751606 0.99999899 0.00097751606
0.063676402 0.061999999 0.0086503699 0.00097751606 0.99999899 0.00097751606
0.00048856501 0.061999999 0.018780001 0.00097751606 0.99999899 0.00097751606
0.0171714 0.061999999 0.018358501 0.00097751606 0.99999899 0.00097751606
0.110551 0.061999999 0.0083401697 0.00097751606 0.99999899 0.00097751606
0.084748097 0.061999999 0.00123218 0.00097751606 0.99999899 0.00097751606
0.038699102 0.061999999 0.032733802 0.00097751606 0.99999899 0.00097751606
0.010484 0.061999999 0.046047501 0.00097751606 0.99999899 0.00097751606
0.079725496 0.061999999 0.0309122 0.00097751606 0.99999899 0.00097751606
0.037372701 0.061999999 0.0439227 0.00097751606 0.99999899 0.00097751606
0.0619055 0.061999999 0.042031001 0.00097751606 0.99999899 0.00097751606
0.031604402 0.061999999 0.044544701 0.00097751606 0.99999899 0.00097751606
0.0110575 0.061999999 0.0258929 0.00097751606 0.99999899 0.00097751606
0.048594002 0.061999999 0.053105399 0.00097751606 0.99999899 0.00097751606
0.043529201 0.061999999 0.050169799 0.00097751606 0.99999899 0.00097751606
0.041680299 0.061999999 0.00084237801 0.00097751606 0.99999899 0.00097751606
0.099639699 0.061999999 0.0276525 0.00097751606 0.99999899 0.00097751606
0.054546401 0.061999999 0.0239577 0.00097751606 0.99999899 0.00097751606
0.0671774 0.061999999 0.037436299 0.00097751606 0.99999899 0.00097751606
0.062612496 0.061999999 0.0270583 0.00097751606 0.99999899 0.00097751606
0.0197201 0.061999999 0.070804603 0.00097751606 0.99999899 0.00097751606
0.016650001 0.061999999 0.041023899 0.00097751606 0.99999899 0.00097751606
0.028194901 0.061999999 0.028790999 0.00097751606 0.99999899 0.00097751606
0.0375432 0.061999999 0.039398499 0.00097751606 0.99999899 0.00097751606
0.041762501 0.061999999 0.064165801 0.00097751606 0.99999899 0.00097751606
0.0407276 0.061999999 0.030203 0.00097751606 0.99999899 0.00097751606
0.111272 0.061999999 0.00120098 0.00097751606 0.99999899 0.00097751606
0.0092855403 0.061999999 0.056067701 0.00097751606 0.99999899 0.00097751606
0.046930902 0.061999999 0.046059702 0.00097751606 0.99999899 0.00097751606
0.039138101 0.061999999 0.057611398 0.00097751606 0.99999899 0.00097751606
0.0042666602 0.061999999 0.070397198 0.00097751606 0.99999899 0.00097751606
0.00080259499 0.061999999 0.055085398 0.00097751606 0.99999899 0.00097751606
0.040568501 0.061999999 0.066335499 0.00097751606 0.99999899 0.00097751606
0.075733803 0.061999999 0.043994699 0.00097751606 0.99999899 0.00097751606
0.035324302 0.061999999 0.0226513 0.00097751606 0.99999899 0.00097751606
0.137003 0.061999999 0.0029965099 0.00097751606 0.99999899 0.00097751606
0.0041607702 0.061999999 0.031339899 0.00097751606 0.99999899 0.00097751606
0.0046755001 0.061999999 0.081473701 0.00097751606 0.99999899 0.00097751606
0.046626899 0.061999999 0.000238746 0.00097751606 0.99999899 0.00097751606
0.104088 0.061999999 0.0123517 0.00097751606 0.99999899 0.00097751606
0.055464599 0.061999999 0.045492802 0.00097751606 0.99999899 0.00097751606
0.084242597 0.061999999 0.0187598 0.00097751606 0.99999899 0.00097751606
0.0239562 0.061999999 0.043393701 0.00097751606 0.99999899 0.00097751606
0.054044701 0.061999999 0.0285965 0.00097751606 0.99999899 0.00097751606
0.078453802 0.061999999 0.0072556799 0.00097751606 0.99999899 0.00097751606
0.097274199 0.061999999 0.023355801 0.00097751606 0.99999899 0.00097751606
0.0123174 0.061999999 0.061217301 0.00097751606 0.99999899 0.00097751606
0.0318342 0.061999999 0.0166508 0.00097751606 0.99999899 0.00097751606
0.099066302 0.061999999 0.0042085401 0.00097751606 0.99999899 0.00097751606
0.0042520901 0.061999999 0.076878197 0.00097751606 0.99999899 0.00097751606
0.00143897 0.061999999 0.029846899 0.00097751606 0.99999899 0.00097751606
0.068656199 0.061999999 0.026999401 0.00097751606 0.99999899 0.00097751606
0.0134812 0.061999999 0.0130373 0.00097751606 0.99999899 0.00097751606
0.0047476501 0.061999999 0.0464736 0.00097751606 0.99999899 0.00097751606
0.0041544898 0.061999999 0.088331804 0.00097751606 0.99999899 0.00097751606
0.0189436 0.061999999 0.072270699 0.00097751606 0.99999899 0.00097751606
0.0966627 0.061999999 0.020676 0.00097751606 0.99999899 0.00097751606
0.0135395 0.061999999 0.054987501 0.00097751606 0.99999899 0.00097751606
0.018606201 0.061999999 0.0172258 0.00097751606 0.99999899 0.00097751606
0.100791 0.061999999 0.024489099 0.00097751606 0.99999899 0.00097751606
0.0051775798 0.061999999 0.074282698 0.00097751606 0.99999899 0.00097751606
0.105927 0.061999999 0.00033705699 0.00097751606 0.99999899 0.00097751606
0.068690903 0.061999999 0.0021903701 0.00097751606 0.99999899 0.00097751606
0.0281114 0.061999999 0.047664799 0.00097751606 0.99999899 0.00097751606
0.0080220699 0.061999999 0.084500603 0.00097751606 0.99999899 0.00097751606
0.050041899 0.061999999 0.0208272 0.00097751606 0.99999899 0.00097751606
0.031635601 0.061999999 0.020301601 0.00097751606 0.99999899 0.00097751606
0.0159608 0.061999999 0.070982397 0.00097751606 0.99999899 0.00097751606
0.024089901 0.061999999 0.0117798 0.00097751606 0.99999899 0.00097751606
0.041144699 0.061999999 0.044415899 0.00097751606 0.99999899 0.00097751606
0.055309001 0.061999999 0.0573701 0.00097751606 0.99999899 0.00097751606
0.097236499 0.061999999 0.0126565 0.00097751606 0.99999899 0.00097751606
0.048927002 0.061999999 0.046704698 0.00097751606 0.99999899 0.00097751606
0.0136954 0.061999999 0.072203398 0.00097751606 0.99999899 0.00097751606
0.10934 0.061999999 0.021055199 0.00097751606 0.99999899 0.00097751606
0.100382 0.061999999 0.0117219 0.00097751606 0.99999899 0.00097751606
0.085080199 0.061999999 0.0248443 0.00097751606 0.99999899 0.00097751606
0.0149624 0.061999999 0.0271235 0.00097751606 0.99999899 0.00097751606
0.079706602 0.061999999 0.0108936 0.00097751606 0.99999899 0.00097751606
0.075522602 0.061999999 0.026595799 0.00097751606 0.99999899 0.00097751606
0.0169347 0.061999999 0.0289212 0.00097751606 0.99999899 0.00097751606
0.0234544 0.061999999 0.0443931 0.00097751606 0.99999899 0.00097751606
0.0179301 0.061999999 0.068968304 0.00097751606 0.99999899 0.00097751606
0.0641241 0.061999999 0.023618599 0.00097751606 0.99999899 0.00097751606
0.049866602 0.061999999 0.030625001 0.00097751606 0.99999899 0.00097751606
0.0121594 0.061999999 0.0135599 0.00097751606 0.99999899 0.00097751606
0.0059586102 0.061999999 0.026733501 0.00097751606 0.99999899 0.00097751606
0.00865243 0.061999999 0.053812299 0.00097751606 0.99999899 0.00097751606
0.084753901 0.061999999 0.0050876299 0.00097751606 0.99999899 0.00097751606
0.100983 0.061999999 0.020147299 0.00097751606 0.99999899 0.00097751606
0.077216901 0.061999999 0.0281708 0.00097751606 0.99999899 0.00097751606
0.0312346 0.061999999 0.0024415201 0.00097751606 0.99999899 0.00097751606
0.035892099 0.061999999 0.049665999 0.00097751606 0.99999899 0.00097751606
0.042018998 0.061999999 0.0113695 0.00097751606 0.99999899 0.00097751606
0.026230499 0.061999999 0.0411136 0.00097751606 0.99999899 0.00097751606
0.0039056099 0.061999999 0.0145482 0.00097751606 0.99999899 0.00097751606
0.118418 0.061999999 0.0164761 0.00097751606 0.99999899 0.00097751606
0.028201301 0.061999999 0.045462701 0.00097751606 0.99999899 0.00097751606
0.0656453 0.061999999 0.034727398 0.00097751606 0.99999899 0.00097751606
0.090663597 0.061999999 0.026070699 0.00097751606 0.99999899 0.00097751606
0.097700797 0.061999999 0.015938601 0.00097751606 0.99999899 0.00097751606
0.079144403 0.061999999 0.0057975398 0.00097751606 0.99999899 0.00097751606
0.053033601 0.061999999 0.0032368901 0.00097751606 0.99999899 0.00097751606
0.0187709 0.061999999 0.043280002 0.00097751606 0.99999899 0.00097751606
0.068735898 0.061999999 0.021397101 0.00097751606 0.99999899 0.00097751606
0.083323397 0.061999999 0.01039 0.00097751606 0.99999899 0.00097751606
0.074887902 0.061999999 0.027768601 0.00097751606 0.99999899 0.00097751606
0.099796399 0.061999999 0.017073801 0.00097751606 0.99999899 0.00097751606
0.086933397 0.061999999 0.0157871 0.00097751606 0.99999899 0.00097751606
0.081600897 0.061999999 0.037123699 0.00097751606 0.99999899 0.00097751606
0.0542381 0.061999999 0.029363699 0.00097751606 0.99999899 0.00097751606
0.0726026 0.061999999 0.022588899 0.00097751606 0.99999899 0.00097751606
0.081558101 0.061999999 0.0101641 0.00097751606 0.99999899 0.00097751606
0.0245021 0.061999999 0.0030022201 0.00097751606 0.99999899 0.00097751606
0.0291897 0.061999999 0.0099499701 0.00097751606 0.99999899 0.00097751606
0.136733 0.061999999 0.00308518 0.00097751606 0.99999899 0.00097751606
0.0056602401 0.061999999 0.041396599 0.00097751606 0.99999899 0.00097751606
0.0497697 0.061999999 0.056607001 0.00097751606 0.99999899 0.00097751606
0.067215003 0.061999999 0.041398101 0.00097751606 0.99999899 0.00097751606
0.018656701 0.061999999 0.018375499 0.00097751606 0.99999899 0.00097751606
0.043814 0.061999999 0.00778883 0.00097751606 0.99999899 0.00097751606
0.0086034304 0.061999999 0.0241876 0.00097751606 0.99999899 0.00097751606
0.090664901 0.061999999 0.00208576 0.00097751606 0.99999899 0.00097751606
0.019649301 0.061999999 0.0156018 0.00097751606 0.99999899 0.00097751606
0.074065603 0.061999999 0.0450182 0.00097751606 0.99999899 0.00097751606
0.044710599 0.061999999 0.0257583 0.00097751606 0.99999899 0.00097751606
0.124995 0.061999999 0.00054598402 0.00097751606 0.99999899 0.00097751606
0.0288991 0.061999999 0.062556699 0.00097751606 0.99999899 0.00097751606
0.104035 0.061999999 0.0186226 0.00097751606 0.99999899 0.00097751606
0.0809303 0.061999999 0.0078151999 0.00097751606 0.99999899 0.00097751606
0.040129598 0.061999999 0.066554099 0.00097751606 0.99999899 0.00097751606
0.00129938 0.061999999 0.069633603 0.00097751606 0.99999899 0.00097751606
0.0129417 0.061999999 0.072264098 0.00097751606 0.99999899 0.00097751606
0.0191078 0.061999999 0.002444 0.00097751606 0.99999899 0.00097751606
0.0074972999 0.061999999 0.0204487 0.00097751606 0.99999899 0.00097751606
0.020605201 0.061999999 0.027058801 0.00097751606 0.99999899 0.00097751606
0.019338399 0.061999999 0.039442401 0.00097751606 0.99999899 0.00097751606
0.0110294 0.061999999 0.0129929 0.00097751606 0.99999899 0.00097751606
0.073175102 0.061999999 0.036607299 0.00097751606 0.99999899 0.00097751606
0.018357901 0.061999999 0.019916801 0.00097751606 0.99999899 0.00097751606
0.065598197 0.061999999 0.0229198 0.00097751606 0.99999899 0.00097751606
0.0480243 0.061999999 0.057179701 0.00097751606 0.99999899 0.00097751606
0.060048901 0.061999999 0.054360598 0.00097751606 0.99999899 0.00097751606
0.013109 0.061999999 0.029384701 0.00097751606 0.99999899 0.00097751606
0.047108602 0.061999999 0.024674101 0.00097751606 0.99999899 0.00097751606
0.13221 0.061999999 0.0072379401 0.00097751606 0.99999899 0.00097751606
0.066931002 0.061999999 0.00359707 0.00097751606 0.99999899 0.00097751606
0.0398762 0.061999999 0.00679969 0.00097751606 0.99999899 0.00097751606
0.090899996 0.061999999 0.0082243001 0.00097751606 0.99999899 0.00097751606
0.023974599 0.061999999 0.0230122 0.00097751606 0.99999899 0.00097751606
0.037205599 0.061999999 0.0139151 0.00097751606 0.99999899 0.00097751606
0.0071596298 0.061999999 0.050682198 0.00097751606 0.99999899 0.00097751606
0.055470102 0.061999999 0.039985102 0.00097751606 0.99999899 0.00097751606
0.086699903 0.061999999 0.0115945 0.00097751606 0.99999899 0.00097751606
0.0124887 0.061999999 0.055277199 0.00097751606 0.99999899 0.00097751606
0.079611398 0.061999999 0.0413891 0.00097751606 0.99999899 0.00097751606
0.106849 0.061999999 0.0103879 0.00097751606 0.99999899 0.00097751606
0.069012702 0.061999999 0.035535499 0.00097751606 0.99999899 0.00097751606
0.121384 0.061999999 0.0159877 0.00097751606 0.99999899 0.00097751606
0.0068652299 0.061999999 0.0034018401 0.00097751606 0.99999899 0.00097751606
0.099951603 0.061999999 0.0251214 0.00097751606 0.99999899 0.00097751606
0.0011198201 0.061999999 0.069987699 0.00097751606 0.99999899 0.00097751606
0.020361399 0.061999999 0.0144401 0.00097751606 0.99999899 0.00097751606
0.0255678 0.061999999 0.053115301 0.00097751606 0.99999899 0.00097751606
0.089748397 0.061999999 0.0171874 0.00097751606 0.99999899 0.00097751606
0.022322901 0.061999999 0.064455099 0.00097751606 0.99999899 0.00097751606
0.0548678 0.061999999 0.010397 0.00097751606 0.99999899 0.00097751606
0.040742401 0.061999999 0.0208687 0.00097751606 0.99999899 0.00097751606
0.0054380898 0.061999999 0.082407899 0.00097751606 0.99999899 0.00097751606
0.056817699 0.061999999 0.0194811 0.00097751606 0.99999899 0.00097751606
0.050540801 0.061999999 0.011375 0.00097751606 0.99999899 0.00097751606
0.0132496 0.061999999 0.0710297 0.00097751606 0.99999899 0.00097751606
0.0455111 0.061999999 0.0098209903 0.00097751606 0.99999899 0.00097751606
0.076518901 0.061999999 0.0022925299 0.00097751606 0.99999899 0.00097751606
0.033369001 0.061999999 0.070993803 0.00097751606 0.99999899 0.00097751606
0.0060883202 0.061999999 0.0090705696 0.00097751606 0.99999899 0.00097751606
0.0281162 0.061999999 0.016671101 0.00097751606 0.99999899 0.00097751606
0.064771101 0.061999999 0.042672601 0.00097751606 0.99999899 0.00097751606
0.040486299 0.061999999 0.00376297 0.00097751606 0.99999899 0.00097751606
0.0149053 0.061999999 0.044019401 0.00097751606 0.99999899 0.00097751606
0.0027332201 0.061999999 0.037172899 0.00097751606 0.99999899 0.00097751606
0.0461725 0.061999999 0.0205495 0.00097751606 0.99999899 0.00097751606
0.0108502 0.061999999 0.025701899 0.00097751606 0.99999899 0.00097751606
0.050700199 0.061999999 0.046137799 0.00097751606 0.99999899 0.00097751606
0.00370595 0.061999999 0.0228756 0.00097751606 0.99999899 0.00097751606
0.00512427 0.061999999 0.00081023597 0.00097751606 0.99999899 0.00097751606
0.0137039 0.061999999 0.074082501 0.00097751606 0.99999899 0.00097751606
0.062148102 0.061999999 0.0206891 0.00097751606 0.99999899 0.00097751606
0.018672699 0.061999999 0.062110402 0.00097751606 0.99999899 0.00097751606
0.038762499 0.061999999 0.0137482 0.00097751606 0.99999899 0.00097751606
0.0071284701 0.061999999 0.039990298 0.00097751606 0.99999899 0.00097751606
0.0044871699 0.061999999 0.061263699 0.00097751606 0.99999899 0.00097751606
0.000310287 0.061999999 0.0102862 0.00097751606 0.99999899 0.00097751606
0.019423399 0.061999999 0.065485902 0.00097751606 0.99999899 0.00097751606
0.0021997499 0.061999999 0.077508003 0.00097751606 0.99999899 0.00097751606
0.050044902 0.061999999 0.050509099 0.00097751606 0.99999899 0.00097751606
0.016130099 0.061999999 0.075634196 0.00097751606 0.99999899 0.00097751606
0.033904999 0.061999999 0.0252061 0.00097751606 0.99999899 0.00097751606
0.0537697 0.061999999 0.00219345 0.00097751606 0.99999899 0.00097751606
0.057717301 0.061999999 0.055321801 0.00097751606 0.99999899 0.00097751606
0.0187138 0.061999999 0.046058498 0.00097751606 0.99999899 0.00097751606
0.022525501 0.061999999 0.0339089 0.00097751606 0.99999899 0.00097751606
0.023235399 0.061999999 0.031937901 0.00097751606 0.99999899 0.00097751606
0.064315401 0.061999999 0.0031404099 0.00097751606 0.99999899 0.00097751606
0.070454501 0.061999999 0.027747801 0.00097751606 0.99999899 0.00097751606
0.0083187204 0.061999999 0.0115457 0.00097751606 0.99999899 0.00097751606
0.00084306701 0.061999999 0.029864799 0.00097751606 0.99999899 0.00097751606
0.0052660499 0.061999999 0.078295998 0.00097751606 0.99999899 0.00097751606
0.070632197 0.061999999 0.016475201 0.00097751606 0.99999899 0.00097751606
0.039397299 0.061999999 0.0499673 0.00097751606 0.99999899 0.00097751606
0.101468 0.061999999 0.0139306 0.00097751606 0.99999899 0.00097751606
0.0136276 0.061999999 0.0038565099 0.00097751606 0.99999899 0.00097751606
0.0054146098 0.061999999 0.00110968 0.00097751606 0.99999899 0.00097751606
0.0494572 0.061999999 0.053126 0.00097751606 0.99999899 0.00097751606
0.0030692299 0.061999999 0.053827401 0.00097751606 0.99999899 0.00097751606
0.12804 0.061999999 0.0037151 0.00097751606 0.99999899 0.00097751606
0.063696802 0.061999999 0.0075261299 0.00097751606 0.99999899 0.00097751606
0.033201501 0.061999999 0.055339701 0.00097751606 0.99999899 0.00097751606
0.019517399 0.061999999 0.043392699 0.00097751606 0.99999899 0.00097751606
0.090941399 0.061999999 0.0130138 0.00097751606 0.99999899 0.00097751606
0.047096599 0.061999999 0.0143518 0.00097751606 0.99999899 0.00097751606
0.122905 0.061999999 0.0078888303 0.00097751606 0.99999899 0.00097751606
0.0576155 0.061999999 0.025508501 0.00097751606 0.99999899 0.00097751606
0.0309374 0.061999999 0.0147955 0.00097751606 0.99999899 0.00097751606
0.0195831 0.061999999 0.0436236 0.00097751606 0.99999899 0.00097751606
0.0856677 0.061999999 0.022541201 0.00097751606 0.99999899 0.00097751606
0.043522701 0.061999999 0.042046301 0.00097751606 0.99999899 0.00097751606
0.119939 0.061999999 0.0145956 0.00097751606 0.99999899 0.00097751606
0.036005199 0.061999999 0.043595102 0.00097751606 0.99999899 0.00097751606
0.0699412 0.061999999 0.032741401 0.00097751606 0.99999899 0.00097751606
0.083978899 0.061999999 0.0143298 0.00097751606 0.99999899 0.00097751606
0.048167702 0.061999999 0.048958801 0.00097751606 0.99999899 0.00097751606
0.015133 0.061999999 0.0225456 0.00097751606 0.99999899 0.00097751606
0.051062901 0.061999999 0.0131299 0.00097751606 0.99999899 0.00097751606
0.0023977801 0.061999999 0.036399499 0.00097751606 0.99999899 0.00097751606
0.066372097 0.061999999 0.034180399 0.00097751606 0.99999899 0.00097751606
0.063217796 0.061999999 0.050350599 0.00097751606 0.99999899 0.00097751606
0.018605201 0.061999999 0.0326421 0.00097751606 0.99999899 0.00097751606
0.04642 0.061999999 0.0593605 0.00097751606 0.99999899 0.00097751606
0.0133497 0.061999999 0.079240799 0.00097751606 0.99999899 0.00097751606
0.098990597 0.061999999 0.017965101 0.00097751606 0.99999899 0.00097751606
0.028550901 0.061999999 0.037151601 0.00097751606 0.99999899 0.00097751606
0.0450042 0.061999999 0.0281843 0.00097751606 0.99999899 0.00097751606
0.0044767 0.061999999 0.0040460299 0.00097751606 0.99999899 0.00097751606
0.0625249 0.061999999 0.019659201 0.00097751606 0.99999899 0.00097751606
0.075562999 0.061999999 0.032866701 0.00097751606 0.99999899 0.00097751606
0.0258979 0.061999999 0.0548338 0.00097751606 0.99999899 0.00097751606
0.095233202 0.061999999 0.0317964 0.00097751606 0.99999899 0.00097751606
0.029018899 0.061999999 0.0275314 0.00097751606 0.99999899 0.00097751606
0.051361699 0.061999999 0.00446497 0.00097751606 0.99999899 0.00097751606
0.090769596 0.061999999 0.0032239 0.00097751606 0.99999899 0.00097751606
0.071633801 0.061999999 0.046687901 0.00097751606 0.99999899 0.00097751606
0.066459604 0.061999999 0.031488702 0.00097751606 0.99999899 0.00097751606
0.0181079 0.061999999 0.0642948 0.00097751606 0.99999899 0.00097751606
0.048799701 0.061999999 0.0500025 0.00097751606 0.99999899 0.00097751606
0.068179801 0.061999999 0.028343201 0.00097751606 0.99999899 0.00097751606
0.122985 0.061999999 0.0038558999 0.00097751606 0.99999899 0.00097751606
0.0144804 0.061999999 0.038251098 0.00097751606 0.99999899 0.00097751606
0.0211703 0.061999999 0.0401963 0.00097751606 0.99999899 0.00097751606
0.107387 0.061999999 0.013811 0.00097751606 0.99999899 0.00097751606
0.067338102 0.061999999 0.0237896 0.00097751606 0.99999899 0.00097751606
0.018688999 0.061999999 0.079734899 0.00097751606 0.99999899 0.00097751606
0.0131863 0.061999999 0.023404101 0.00097751606 0.99999899 0.00097751606
0.0058478499 0.061999999 0.0385934 0.00097751606 0.99999899 0.00097751606
0.0249629 0.061999999 0.063841298 0.00097751606 0.99999899 0.00097751606
0.096026801 0.061999999 0.0138432 0.00097751606 0.99999899 0.00097751606
0.041764401 0.061999999 0.00281103 0.00097751606 0.99999899 0.00097751606
0.035070099 0.061999999 0.0249331 0.00097751606 0.99999899 0.00097751606
0.027022099 0.061999999 0.0710373 0.00097751606 0.99999899 0.00097751606
0.082257397 0.061999999 0.038692798 0.00097751606 0.99999899 0.00097751606
0.036965601 0.061999999 0.0089240102 0.00097751606 0.99999899 0.00097751606
0.0224433 0.061999999 0.064457797 0.00097751606 0.99999899 0.00097751606
0.028327599 0.061999999 0.028046399 0.00097751606 0.99999899 0.00097751606
0.064438403 0.061999999 0.0254346 0.00097751606 0.99999899 0.00097751606
0.043819401 0.061999999 0.059090499 0.00097751606 0.99999899 0.00097751606
0.045318499 0.061999999 0.052328199 0.00097751606 0.99999899 0.00097751606
0.021742599 0.061999999 0.055247799 0.00097751606 0.99999899 0.00097751606
0.0951842 0.061999999 0.0210282 0.00097751606 0.99999899 0.00097751606
0.0154324 0.061999999 0.070017204 0.00097751606 0.99999899 0.00097751606
0.079976998 0.061999999 0.0136413 0.00097751606 0.99999899 0.00097751606
0.063719399 0.061999999 0.029317399 0.00097751606 0.99999899 0.00097751606
0.0296744 0.061999999 0.067879103 0.00097751606 0.99999899 0.00097751606
0.039625 0.061999999 0.044970602 0.00097751606 0.99999899 0.00097751606
0.065073296 0.061999999 0.044497501 0.00097751606 0.99999899 0.00097751606
0.070369497 0.061999999 0.0415079 0.00097751606 0.99999899 0.00097751606
0.029347001 0.061999999 0.0209815 0.00097751606 0.99999899 0.00097751606
0.12891699 0.061999999 0.00064084702 0.00097751606 0.99999899 0.00097751606
0.0266643 0.061999999 0.044391099 0.00097751606 0.99999899 0.00097751606
0.052812099 0.061999999 0.024807099 0.00097751606 0.99999899 0.00097751606
0.043784302 0.061999999 0.041640099 0.00097751606 0.99999899 0.00097751606
0.078976601 0.061999999 0.0162929 0.00097751606 0.99999899 0.00097751606
0.075247698 0.061999999 0.0134957 0.00097751606 0.99999899 0.00097751606
0.112817 0.061999999 0.0021995001 0.00097751606 0.99999899 0.00097751606
0.038516901 0.061999999 0.00077181298 0.00097751606 0.99999899 0.00097751606
0.0055956701 0.061999999 0.061959799 0.00097751606 0.99999899 0.00097751606
0.0097433198 0.061999999 0.025820499 0.00097751606 0.99999899 0.00097751606
0.0106432 0.061999999 0.065855898 0.00097751606 0.99999899 0.00097751606
0.117783 0.061999999 0.016008399 0.00097751606 0.99999899 0.00097751606
0.0770742 0.061999999 0.0100396 0.00097751606 0.99999899 0.00097751606
0.094644897 0.061999999 0.0054967701 0.00097751606 0.99999899 0.00097751606
0.019265801 0.061999999 0.0270565 0.00097751606 0.99999899 0.00097751606
0.035942499 0.061999999 0.044189401 0.00097751606 0.99999899 0.00097751606
0.065770999 0.061999999 0.0394991 0.00097751606 0.99999899 0.00097751606
0.051977701 0.061999999 0.016971899 0.00097751606 0.99999899 0.00097751606
0.109748 0.061999999 0.0088629499 0.00097751606 0.99999899 0.00097751606
0.0754731 0.061999999 0.016485799 0.00097751606 0.99999899 0.00097751606
0.028749401 0.061999999 0.0091270003 0.00097751606 0.99999899 0.00097751606
0.104296 0.061999999 0.0143024 0.00097751606 0.99999899 0.00097751606
0.0205852 0.061999999 0.0257595 0.00097751606 0.99999899 0.00097751606
0.12887301 0.061999999 0.0101717 0.00097751606 0.99999899 0.00097751606
0.044376999 0.061999999 0.031879898 0.00097751606 0.99999899 0.00097751606
0.095642 0.061999999 0.0140919 0.00097751606 0.99999899 0.00097751606
0.0271683 0.061999999 0.019606199 0.00097751606 0.99999899 0.00097751606
0.0196476 0.061999999 0.0070107598 0.00097751606 0.99999899 0.00097751606
0.065245599 0.061999999 0.047547199 0.00097751606 0.99999899 0.00097751606
0.067311302 0.061999999 0.021471201 0.00097751606 0.99999899 0.00097751606
0.016256399 0.061999999 0.0082225399 0.00097751606 0.99999899 0.00097751606
0.0135825 0.061999999 0.056993201 0.00097751606 0.99999899 0.00097751606
0.0218961 0.061999999 0.042978499 0.00097751606 0.99999899 0.00097751606
0.0348888 0.061999999 0.0220233 0.00097751606 0.99999899 0.00097751606
0.082557604 0.061999999 0.0122045 0.00097751606 0.99999899 0.00097751606
0.019463699 0.061999999 0.039168298 0.00097751606 0.99999899 0.00097751606
0.064787596 0.061999999 0.046086401 0.00097751606 0.99999899 0.00097751606
0.067500897 0.061999999 0.0055130301 0.00097751606 0.99999899 0.00097751606
0.0536277 0.061999999 0.035971802 0.00097751606 0.99999899 0.00097751606
0.095794901 0.061999999 0.0136769 0.00097751606 0.99999899 0.00097751606
0.111638 0.061999999 0.0062099299 0.00097751606 0.99999899 0.00097751606
0.048906099 0.061999999 0.038908999 0.00097751606 0.99999899 0.00097751606
0.079163797 0.061999999 0.0273972 0.00097751606 0.99999899 0.00097751606
0.051687501 0.061999999 0.00193975 0.00097751606 0.99999899 0.00097751606
0.071580499 0.061999999 0.0278835 0.00097751606 0.99999899 0.00097751606
0.032322701 0.061999999 0.032182001 0.00097751606 0.99999899 0.00097751606
0.040474199 0.061999999 0.038352001 0.00097751606 0.99999899 0.00097751606
0.032762598 0.061999999 0.0415911 0.00097751606 0.99999899 0.00097751606
0.042217299 0.061999999 0.0263285 0.00097751606 0.99999899 0.00097751606
0.0577447 0.061999999 0.00802813 0.00097751606 0.99999899 0.00097751606
0.115769 0.061999999 0.0124457 0.00097751606 0.99999899 0.00097751606
0.046829298 0.061999999 0.051732801 0.00097751606 0.99999899 0.00097751606
0.0515007 0.061999999 0.055371098 0.00097751606 0.99999899 0.00097751606
0.041497901 0.061999999 0.020426 0.00097751606 0.99999899 0.00097751606
0.121507 0.061999999 0.00190014 0.00097751606 0.99999899 0.00097751606
0.078040302 0.061999999 0.0023763699 0.00097751606 0.99999899 0.00097751606
0.062540397 0.061999999 0.0042914399 0.00097751606 0.99999899 0.00097751606
0.0300803 0.061999999 0.0065278602 0.00097751606 0.99999899 0.00097751606
0.061399199 0.061999999 0.0146338 0.00097751606 0.99999899 0.00097751606
0.089830503 0.061999999 0.0208822 0.00097751606 0.99999899 0.00097751606
0.027434099 0.061999999 0.063131198 0.00097751606 0.99999899 0.00097751606
0.017509401 0.061999999 0.027269 0.00097751606 0.99999899 0.00097751606
0.0101128 0.061999999 0.0102642 0.00097751606 0.99999899 0.00097751606
0.1024 0.061999999 0.0118541 0.00097751606 0.99999899 0.00097751606
0.0204749 0.061999999 0.029010201 0.00097751606 0.99999899 0.00097751606
0.070536599 0.061999999 0.0303258 0.00097751606 0.99999899 0.00097751606
0.0071180202 0.061999999 0.0213746 0.00097751606 0.99999899 0.00097751606
0.0147614 0.061999999 0.033037901 0.00097751606 0.99999899 0.00097751606
0.034892399 0.061999999 0.023921199 0.00097751606 0.99999899 0.00097751606
0.0096657602 0.061999999 0.032982599 0.00097751606 0.99999899 0.00097751606
0.060262602 0.061999999 0.0126426 0.00097751606 0.99999899 0.00097751606
0.0369718 0.061999999 0.0150676 0.00097751606 0.99999899 0.00097751606
0.0119983 0.061999999 0.0130288 0.00097751606 0.99999899 0.00097751606
0.0682071 0.061999999 0.0492405 0.00097751606 0.99999899 0.00097751606
0.0014492 0.061999999 0.066360399 0.00097751606 0.99999899 0.00097751606
0.0270929 0.061999999 0.069634899 0.00097751606 0.99999899 0.00097751606
0.032247901 0.061999999 0.0111352 0.00097751606 0.99999899 0.00097751606
0.094005696 0.061999999 0.0020324599 0.00097751606 0.99999899 0.00097751606
0.084431499 0.061999999 0.021982901 0.00097751606 0.99999899 0.00097751606
0.119354 0.061999999 0.00072699197 0.00097751606 0.99999899 0.00097751606
0.070803598 0.061999999 0.0087791597 0.00097751606 0.99999899 0.00097751606
0.037409499 0.061999999 0.0422442 0.00097751606 0.99999899 0.00097751606
0.0381932 0.061999999 0.047568198 0.00097751606 0.99999899 0.00097751606
0.0748851 0.061999999 0.033446599 0.00097751606 0.99999899 0.00097751606
0.053300999 0.061999999 0.0488986 0.00097751606 0.99999899 0.00097751606
0.034894101 0.061999999 0.042980801 0.00097751606 0.99999899 0.00097751606
0.109799 0.061999999 0.0158675 0.00097751606 0.99999899 0.00097751606
0.019426901 0.061999999 0.0160827 0.00097751606 0.99999899 0.00097751606
0.0199618 0.061999999 0.0065942602 0.00097751606 0.99999899 0.00097751606
0.106114 0.061999999 0.0126506 0.00097751606 0.99999899 0.00097751606
0.010264 0.061999999 0.0613444 0.00097751606 0.99999899 0.00097751606
0.0020574799 0.061999999 0.047782499 0.00097751606 0.99999899 0.00097751606
0.095488697 0.061999999 0.011676 0.00097751606 0.99999899 0.00097751606
0.00044015099 0.061999999 0.0567852 0.00097751606 0.99999899 0.00097751606
0.0328831 0.061999999 0.039174099 0.00097751606 0.99999899 0.00097751606
0.120804 0.061999999 0.0021905601 0.00097751606 0.99999899 0.00097751606
0.046477001 0.061999999 0.00064407702 0.00097751606 0.99999899 0.00097751606
0.048798598 0.061999999 0.026888199 0.00097751606 0.99999899 0.00097751606
0.074657701 0.061999999 0.0044543399 0.00097751606 0.99999899 0.00097751606
0.0167109 0.061999999 0.047283798 0.00097751606 0.99999899 0.00097751606
0.016563499 0.061999999 0.031843401 0.00097751606 0.99999899 0.00097751606
0.0111668 0.061999999 0.0516707 0.00097751606 0.99999899 0.00097751606
0.101874 0.061999999 0.0140546 0.00097751606 0.99999899 0.00097751606
0.105868 0.061999999 0.0197985 0.00097751606 0.99999899 0.00097751606
0.112669 0.061999999 0.0125253 0.00097751606 0.99999899 0.00097751606
0.0447549 0.061999999 0.0436914 0.00097751606 0.99999899 0.00097751606
0.121342 0.061999999 0.0132658 0.00097751606 0.99999899 0.00097751606
0.096478 0.061999999 0.028124601 0.00097751606 0.99999899 0.00097751606
0.0456785 0.061999999 0.020426201 0.00097751606 0.99999899 0.00097751606
0.13087399 0.061999999 0.0088933203 0.00097751606 0.99999899 0.00097751606
0.0086985203 0.061999999 0.074872904 0.00097751606 0.99999899 0.00097751606
0.0091713602 0.061999999 0.078957699 0.00097751606 0.99999899 0.00097751606
0.035092901 0.061999999 0.058906 0.00097751606 0.99999899 0.00097751606
0.024870399 0.061999999 0.037866399 0.00097751606 0.99999899 0.00097751606
0.118425 0.061999999 0.0135683 0.00097751606 0.99999899 0.00097751606
0.076851599 0.061999999 0.037039701 0.00097751606 0.99999899 0.00097751606
0.039411701 0.061999999 0.0235213 0.00097751606 0.99999899 0.00097751606
0.083349802 0.061999999 0.0031971601 0.00097751606 0.99999899 0.00097751606
0.053053599 0.061999999 0.0292616 0.00097751606 0.99999899 0.00097751606
0.00309439 0.061999999 0.059048001 0.00097751606 0.99999899 0.00097751606
0.042743701 0.061999999 0.0558245 0.00097751606 0.99999899 0.00097751606
0.046374299 0.061999999 0.00115373 0.00097751606 0.99999899 0.00097751606
0.107171 0.061999999 0.0027467599 0.00097751606 0.99999899 0.00097751606
0.112412 0.061999999 0.0191576 0.00097751606 0.99999899 0.00097751606
0.0107379 0.061999999 0.072671697 0.00097751606 0.99999899 0.00097751606
0.035218701 0.061999999 0.0277107 0.00097751606 0.99999899 0.00097751606
0.0034417701 0.061999999 0.079368502 0.00097751606 0.99999899 0.00097751606
0.0523207 0.061999999 0.027325001 0.00097751606 0.99999899 0.00097751606
0.0271262 0.061999999 0.059921101 0.00097751606 0.99999899 0.00097751606
0.0154004 0.061999999 0.063183203 0.00097751606 0.99999899 0.00097751606
0.041513901 0.061999999 0.0472234 0.00097751606 0.99999899 0.00097751606
0.029642399 0.061999999 0.00127495 0.00097751606 0.99999899 0.00097751606
0.045937501 0.061999999 0.010946 0.00097751606 0.99999899 0.00097751606
0.0130141 0.061999999 0.00834677 0.00097751606 0.99999899 0.00097751606
0.0079841502 0.061999999 0.061904099 0.00097751606 0.99999899 0.00097751606
0.065567002 0.061999999 0.0049730302 0.00097751606 0.99999899 0.00097751606
0.029163299 0.061999999 0.0177634 0.00097751606 0.99999899 0.00097751606
0.038841099 0.061999999 0.0090924697 0.00097751606 0.99999899 0.00097751606
0.034489799 0.061999999 0.00068806898 0.00097751606 0.99999899 0.00097751606
0.039409701 0.061999999 0.058836199 0.00097751606 0.99999899 0.00097751606
0.097925797 0.061999999 0.026339401 0.00097751606 0.99999899 0.00097751606
0.045843601 0.061999999 0.00053212798 0.00097751606 0.99999899 0.00097751606
0.0182501 0.061999999 0.059776999 0.00097751606 0.99999899 0.00097751606
0.079104804 0.061999999 0.0111259 0.00097751606 0.99999899 0.00097751606
0.114384 0.061999999 0.00323899 0.00097751606 0.99999899 0.00097751606
0.098669298 0.061999999 0.018012499 0.00097751606 0.99999899 0.00097751606
0.0176982 0.061999999 0.0432107 0.00097751606 0.99999899 0.00097751606
0.038940102 0.061999999 0.062597297 0.00097751606 0.99999899 0.00097751606
0.0544312 0.061999999 0.019889301 0.00097751606 0.99999899 0.00097751606
0.0236983 0.061999999 0.0234468 0.00097751606 0.99999899 0.00097751606
0.113535 0.061999999 0.014694 0.00097751606 0.99999899 0.00097751606
0.0069075101 0.061999999 0.0116888 0.00097751606 0.99999899 0.00097751606
0.094906799 0.061999999 0.0277879 0.00097751606 0.99999899 0.00097751606
0.085872501 0.061999999 0.0049560298 0.00097751606 0.99999899 0.00097751606
0.0250655 0.061999999 0.048462901 0.00097751606 0.99999899 0.00097751606
0.12787101 0.061999999 0.00939075 0.00097751606 0.99999899 0.00097751606
0.0202333 0.061999999 0.0102368 0.00097751606 0.99999899 0.00097751606
0.035265598 0.061999999 0.039402701 0.00097751606 0.99999899 0.00097751606
0.020525301 0.061999999 0.031272002 0.00097751606 0.99999899 0.00097751606
0.0533158 0.061999999 0.0492507 0.00097751606 0.99999899 0.00097751606
0.058633499 0.061999999 0.0104844 0.00097751606 0.99999899 0.00097751606
0.0281955 0.061999999 0.0100367 0.00097751606 0.99999899 0.00097751606
0.0954642 0.061999999 0.00771059 0.00097751606 0.99999899 0.00097751606
0.00212949 0.061999999 0.072029099 0.00097751606 0.99999899 0.00097751606
0.090691902 0.061999999 0.0203226 0.00097751606 0.99999899 0.00097751606
0.080869801 0.061999999 0.038063999 0.00097751606 0.99999899 0.00097751606
0.056260601 0.061999999 0.019548301 0.00097751606 0.99999899 0.00097751606
0.036091201 0.061999999 0.0307358 0.00097751606 0.99999899 0.00097751606
0.0033434001 0.061999999 0.078980401 0.00097751606 0.99999899 0.00097751606
0.11001 0.061999999 0.0190116 0.00097751606 0.99999899 0.00097751606
0.0146689 0.061999999 0.056690302 0.00097751606 0.99999899 0.00097751606
0.0087794904 0.061999999 0.0110517 0.00097751606 0.99999899 0.00097751606
0.0121933 0.061999999 0.0130256 0.00097751606 0.99999899 0.00097751606
0.024363499 0.061999999 0.065163203 0.00097751606 0.99999899 0.00097751606
0.0100703 0.061999999 0.084805302 0.00097751606 0.99999899 0.00097751606
0.0879061 0.061999999 0.00050329801 0.00097751606 0.99999899 0.00097751606
0.068950802 0.061999999 0.040975802 0.00097751606 0.99999899 0.00097751606
0.066817597 0.061999999 5.46388e-05 0.00097751606 0.99999899 0.00097751606
0.0122899 0.061999999 0.00127758 0.00097751606 0.99999899 0.00097751606
0.0155757 0.061999999 0.080878198 0.00097751606 0.99999899 0.00097751606
0.050431199 0.061999999 0.0066804099 0.00097751606 0.99999899 0.00097751606
0.0262137 0.061999999 0.045274202 0.00097751606 0.99999899 0.00097751606
0.036223799 0.061999999 0.0650208 0.00097751606 0.99999899 0.00097751606
0.089804702 0.061999999 0.0113915 0.00097751606 0.99999899 0.00097751606
0.066287398 0.061999999 0.030450599 0.00097751606 0.99999899 0.00097751606
0.0130815 0.061999999 0.017264601 0.00097751606 0.99999899 0.00097751606
0.067389697 0.061999999 0.0387601 0.00097751606 0.99999899 0.00097751606
0.073902301 0.061999999 0.040236 0.00097751606 0.99999899 0.00097751606
0.0245788 0.061999999 0.0471556 0.00097751606 0.99999899 0.00097751606
0.00856415 0.061999999 0.079550698 0.00097751606 0.99999899 0.00097751606
0.0102598 0.061999999 0.038823199 0.00097751606 0.99999899 0.00097751606
0.0075930301 0.061999999 0.018722801 0.00097751606 0.99999899 0.00097751606
0.014857 0.061999999 0.078025401 0.00097751606 0.99999899 0.00097751606
0.044555601 0.061999999 0.057772599 0.00097751606 0.99999899 0.00097751606
0.0124369 0.061999999 0.037540499 0.00097751606 0.99999899 0.00097751606
0.104766 0.061999999 0.0178356 0.00097751606 0.99999899 0.00097751606
0.036499798 0.061999999 0.0303139 0.00097751606 0.99999899 0.00097751606
0.0058158101 0.061999999 0.080642603 0.00097751606 0.99999899 0.00097751606
0.031998299 0.061999999 0.069572203 0.00097751606 0.99999899 0.00097751606
0.037362602 0.061999999 0.046501901 0.00097751606 0.99999899 0.00097751606
0.0138484 0.061999999 0.0546652 0.00097751606 0.99999899 0.00097751606
0.0065069101 0.061999999 0.074915297 0.00097751606 0.99999899 0.00097751606
0.0170525 0.061999999 0.063427299 0.00097751606 0.99999899 0.00097751606
0.020552 0.061999999 0.034678999 0.00097751606 0.99999899 0.00097751606
0.00382798 0.061999999 0.080086797 0.00097751606 0.99999899 0.00097751606
0.0302875 0.061999999 0.00078077603 0.00097751606 0.99999899 0.00097751606
0.0186067 0.061999999 0.060078099 0.00097751606 0.99999899 0.00097751606
0.0151046 0.061999999 0.0125221 0.00097751606 0.99999899 0.00097751606
0.0326868 0.061999999 0.0407749 0.00097751606 0.99999899 0.00097751606
0.00251873 0.061999999 0.078457601 0.00097751606 0.99999899 0.00097751606
0.020235499 0.061999999 0.0160212 0.00097751606 0.99999899 0.00097751606
0.0192229 0.061999999 0.029986599 0.00097751606 0.99999899 0.00097751606
0.0492067 0.061999999 0.055537101 0.00097751606 0.99999899 0.00097751606
0.0973709 0.061999999 0.0181171 0.00097751606 0.99999899 0.00097751606
0.0131208 0.061999999 0.054600399 0.00097751606 0.99999899 0.00097751606
0.0194514 0.061999999 0.0604086 0.00097751606 0.99999899 0.00097751606
0.100003 0.061999999 0.00057854701 0.00097751606 0.99999899 0.00097751606
0.010229 0.061999999 0.0162869 0.00097751606 0.99999899 0.00097751606
0.0226446 0.061999999 0.072805099 0.00097751606 0.99999899 0.00097751606
0.061422501 0.061999999 0.0038963701 0.00097751606 0.99999899 0.00097751606
0.0485547 0.061999999 0.0579044 0.00097751606 0.99999899 0.00097751606
0.086045302 0.061999999 0.036183301 0.00097751606 0.99999899 0.00097751606
0.00379696 0.061999999 0.0220135 0.00097751606 0.99999899 0.00097751606
0.109353 0.061999999 0.0143475 0.00097751606 0.99999899 0.00097751606
0.0365826 0.061999999 0.0244681 0.00097751606 0.99999899 0.00097751606
0.019411501 0.061999999 0.029108601 0.00097751606 0.99999899 0.00097751606
0.00135895 0.061999999 0.017116399 0.00097751606 0.99999899 0.00097751606
0.021991899 0.061999999 0.058382299 0.00097751606 0.99999899 0.00097751606
0.033782799 0.061999999 0.0273016 0.00097751606 0.99999899 0.00097751606
0.037658501 0.061999999 0.0672663 0.00097751606 0.99999899 0.00097751606
0.036090799 0.061999999 0.027013101 0.00097751606 0.99999899 0.00097751606
0.021968201 0.061999999 0.0444097 0.00097751606 0.99999899 0.00097751606
0.028903499 0.061999999 0.048774701 0.00097751606 0.99999899 0.00097751606
0.0095450003 0.061999999 0.025146199 0.00097751606 0.99999899 0.00097751606
0.042902298 0.061999999 0.0032544699 0.00097751606 0.99999899 0.00097751606
0.0037468099 0.061999999 0.088956997 0.00097751606 0.99999899 0.00097751606
0.032721799 0.061999999 0.033120099 0.00097751606 0.99999899 0.00097751606
0.039129399 0.061999999 0.036869202 0.00097751606 0.99999899 0.00097751606
0.0140696 0.061999999 0.0630619 0.00097751606 0.99999899 0.00097751606
0.045820899 0.061999999 0.021521499 0.00097751606 0.99999899 0.00097751606
0.0165048 0.061999999 0.032125901 0.00097751606 0.99999899 0.00097751606
0.0310426 0.061999999 0.036333799 0.00097751606 0.99999899 0.00097751606
0.034588899 0.061999999 0.068617404 0.00097751606 0.99999899 0.00097751606
0.112782 0.061999999 0.017340301 0.00097751606 0.99999899 0.00097751606
0.0034815499 0.061999999 0.041627299 0.00097751606 0.99999899 0.00097751606
0.100942 0.061999999 0.0075770901 0.00097751606 0.99999899 0.00097751606
0.079829298 0.061999999 0.0095216604 0.00097751606 0.99999899 0.00097751606
0.073925897 0.061999999 0.0057651498 0.00097751606 0.99999899 0.00097751606
0.0241188 0.061999999 0.041444998 0.00097751606 0.99999899 0.00097751606
0.064635403 0.061999999 0.034042802 0.00097751606 0.99999899 0.00097751606
0.011643 0.061999999 0.073989697 0.00097751606 0.99999899 0.00097751606
0.021366101 0.061999999 0.0170535 0.00097751606 0.99999899 0.00097751606
0.0207856 0.061999999 0.0706314 0.00097751606 0.99999899 0.00097751606
0.0356468 0.061999999 0.00235538 0.00097751606 0.99999899 0.00097751606
0.0395271 0.061999999 0.062200502 0.00097751606 0.99999899 0.00097751606
0.074209198 0.061999999 0.0262166 0.00097751606 0.99999899 0.00097751606
0.0249919 0.061999999 0.0457411 0.00097751606 0.99999899 0.00097751606
0.0289187 0.061999999 0.046993699 0.00097751606 0.99999899 0.00097751606
0.065360501 0.061999999 0.037215501 0.00097751606 0.99999899 0.00097751606
0.0041485201 0.061999999 0.046248902 0.00097751606 0.99999899 0.00097751606
0.043178201 0.061999999 0.0055349902 0.00097751606 0.99999899 0.00097751606
0.112001 0.061999999 0.017308099 0.00097751606 0.99999899 0.00097751606
0.053624298 0.061999999 0.050643701 0.00097751606 0.99999899 0.00097751606
0.125219 0.061999999 0.00100751 0.00097751606 0.99999899 0.00097751606
0.082404502 0.061999999 0.021441 0.00097751606 0.99999899 0.00097751606
0.0128249 0.061999999 0.079737499 0.00097751606 0.99999899 0.00097751606
0.058356602 0.061999999 0.049391899 0.00097751606 0.99999899 0.00097751606
0.0277566 0.061999999 0.0110394 0.00097751606 0.99999899 0.00097751606
0.0311426 0.061999999 0.0670745 0.00097751606 0.99999899 0.00097751606
0.0083784396 0.061999999 0.030483801 0.00097751606 0.99999899 0.00097751606
0.080727197 0.061999999 0.00534441 0.00097751606 0.99999899 0.00097751606
0.1119 0.061999999 0.0217706 0.00097751606 0.99999899 0.00097751606
0.0592421 0.061999999 0.0056493501 0.00097751606 0.99999899 0.00097751606
0.068603203 0.061999999 0.0321672 0.00097751606 0.99999899 0.00097751606
0.049063802 0.061999999 0.024367699 0.00097751606 0.99999899 0.00097751606
0.035173301 0.061999999 0.0461125 0.00097751606 0.99999899 0.00097751606
0.0182155 0.061999999 0.00147386 0.00097751606 0.99999899 0.00097751606
0.0051450599 0.061999999 0.048560299 0.00097751606 0.99999899 0.00097751606
0.0154884 0.061999999 0.0488392 0.00097751606 0.99999899 0.00097751606
0.024092199 0.061999999 0.026212299 0.00097751606 0.99999899 0.00097751606
0.045292199 0.061999999 0.0260917 0.00097751606 0.99999899 0.00097751606
0.064635903 0.061999999 0.00102572 0.00097751606 0.99999899 0.00097751606
0.023608901 0.061999999 0.033773601 0.00097751606 0.99999899 0.00097751606
0.0037314401 0.061999999 0.079683803 0.00097751606 0.99999899 0.00097751606
0.069981799 0.061999999 0.038709201 0.00097751606 0.99999899 0.00097751606
0.036920901 0.061999999 0.052142799 0.00097751606 0.99999899 0.00097751606
0.0139645 0.061999999 0.042729001 0.00097751606 0.99999899 0.00097751606
0.088079698 0.061999999 0.0172625 0.00097751606 0.99999899 0.00097751606
0.00598608 0.061999999 0.0055895699 0.00097751606 0.99999899 0.00097751606
0.0297467 0.061999999 0.071804903 0.00097751606 0.99999899 0.00097751606
0.062647603 0.061999999 0.0309208 0.00097751606 0.99999899 0.00097751606
0.066377297 0.061999999 0.0467228 0.00097751606 0.99999899 0.00097751606
0.091138102 0.061999999 0.0319435 0.00097751606 0.99999899 0.00097751606
0.025831699 0.061999999 0.073944099 0.00097751606 0.99999899 0.00097751606
0.049597099 0.061999999 0.032074802 0.00097751606 0.99999899 0.00097751606
0.121679 0.061999999 0.0035083899 0.00097751606 0.99999899 0.00097751606
0.058076799 0.061999999 0.0079167401 0.00097751606 0.99999899 0.00097751606
0.0751765 0.061999999 0.00858148 0.00097751606 0.99999899 0.00097751606
0.070819996 0.061999999 0.034727599 0.00097751606 0.99999899 0.00097751606
0.034594901 0.061999999 0.037520099 0.00097751606 0.99999899 0.00097751606
0.13428099 0.061999999 0.0049741501 0.00097751606 0.99999899 0.00097751606
0.0353656 0.061999999 0.0463509 0.00097751606 0.99999899 0.00097751606
0.024720401 0.061999999 0.027870299 0.00097751606 0.99999899 0.00097751606
0.0079306299 0.061999999 0.0732373 0.00097751606 0.99999899 0.00097751606
0.085600898 0.061999999 0.0174565 0.00097751606 0.99999899 0.00097751606
0.0124882 0.061999999 0.0094113797 0.00097751606 0.99999899 0.00097751606
0.083723404 0.061999999 0.0045901299 0.00097751606 0.99999899 0.00097751606
0.0090048304 0.061999999 0.073766902 0.00097751606 0.99999899 0.00097751606
0.071166597 0.061999999 0.0424123 0.00097751606 0.99999899 0.00097751606
0.0067039998 0.061999999 0.027352599 0.00097751606 0.99999899 0.00097751606
0.082219496 0.061999999 0.0274093 0.00097751606 0.99999899 0.00097751606
0.036281299 0.061999999 0.0183706 0.00097751606 0.99999899 0.00097751606
0.089977898 0.061999999 0.022329099 0.00097751606 0.99999899 0.00097751606
0.095222801 0.061999999 0.027711499 0.00097751606 0.99999899 0.00097751606
0.127874 0.061999999 0.00146202 0.00097751606 0.99999899 0.00097751606
0.0185952 0.061999999 0.0174342 0.00097751606 0.99999899 0.00097751606
0.0140347 0.061999999 0.017571099 0.00097751606 0.99999899 0.00097751606
0.072626203 0.061999999 0.0123046 0.00097751606 0.99999899 0.00097751606
0.069679998 0.061999999 0.032131199 0.00097751606 0.99999899 0.00097751606
0.0090843104 0.061999999 0.035765398 0.00097751606 0.99999899 0.00097751606
0.0046605798 0.061999999 0.0424872 0.00097751606 0.99999899 0.00097751606
0.0561697 0.061999999 0.018417099 0.00097751606 0.99999899 0.00097751606
0.098161101 0.061999999 0.018659599 0.00097751606 0.99999899 0.00097751606
0.060414001 0.061999999 0.035666101 0.00097751606 0.99999899 0.00097751606
0.0516169 0.061999999 0.036180001 0.00097751606 0.99999899 0.00097751606
0.045852602 0.061999999 0.041377299 0.00097751606 0.99999899 0.00097751606
0.076171599 0.061999999 0.018810799 0.00097751606 0.99999899 0.00097751606
0.0184264 0.061999999 0.069509998 0.00097751606 0.99999899 0.00097751606
0.122021 0.061999999 0.0091832802 0.00097751606 0.99999899 0.00097751606
0.032980401 0.061999999 0.032025501 0.00097751606 0.99999899 0.00097751606
0.094907098 0.061999999 0.0116346 0.00097751606 0.99999899 0.00097751606
0.0062976 0.061999999 0.00363838 0.00097751606 0.99999899 0.00097751606
0.060508698 0.061999999 0.0430202 0.00097751606 0.99999899 0.00097751606
0.042665601 0.061999999 0.022705199 0.00097751606 0.99999899 0.00097751606
0.034383401 0.061999999 0.0301053 0.00097751606 0.99999899 0.00097751606
0.066711597 0.061999999 0.041309498 0.00097751606 0.99999899 0.00097751606
0.0068854699 0.061999999 0.069462702 0.00097751606 0.99999899 0.00097751606
0.0275406 0.061999999 0.073421903 0.00097751606 0.99999899 0.00097751606
0.0177829 0.061999999 0.019475499 0.00097751606 0.99999899 0.00097751606
